# .PCD v0.7 - Point Cloud Data file format
VERSION 0.7
FIELDS x y z intensity
SIZE 4 4 4 4
TYPE F F F F
COUNT 1 1 1 1
WIDTH 1504
HEIGHT 1
VIEWPOINT 0 0 0 1 0 0 0
POINTS 1504
DATA ascii
-0.2894 -14.6664 -2.6629 4.0000
-0.6295 -24.4025 -2.7440 45.0000
-0.8742 -33.5858 1.3566 46.0000
4.0266 -16.1727 0.9683 32.0000
-0.7506 -27.4033 2.2347 33.0000
4.2050 -17.2201 2.1773 41.0000
7.3047 -29.0187 0.1831 16.0000
3.2639 -20.8561 0.0000 18.0000
1.4776 -23.2025 -0.1349 16.0000
-0.9068 -34.1456 -0.3650 3.0000
6.8781 -26.8509 0.8055 8.0000
3.3329 -20.9151 0.4985 27.0000
1.5685 -23.4085 0.4309 28.0000
-0.8112 -33.6375 0.4018 22.0000
0.1488 -0.5921 -0.2662 2.0000
2.3271 -9.0345 -2.4205 29.0000
2.3290 -9.3573 -1.3312 10.0000
7.2926 -29.2719 -2.8330 7.0000
12.1046 -48.2134 -3.1520 15.0000
5.2381 -33.6163 -2.3763 39.0000
1.1994 -19.1979 -1.4484 59.0000
-1.0869 -39.3468 -3.1735 6.0000
6.9936 -27.3213 -1.1208 2.0000
3.6963 -23.0906 -1.0874 46.0000
4.5172 -69.2664 -3.6576 3.0000
6.8238 -27.1100 -0.4697 33.0000
3.6121 -23.0274 -0.5268 46.0000
1.4851 -23.5136 -0.6697 16.0000
-0.9351 -33.2470 -1.1392 6.0000
-0.3404 -14.6555 -2.6611 4.0000
-0.7145 -24.3952 -2.7434 72.0000
-0.9912 -33.5726 1.3562 32.0000
4.0225 -16.3999 0.9811 33.0000
-0.8818 -28.5461 2.3282 16.0000
4.1402 -17.2154 2.1748 39.0000
7.2660 -29.2964 0.1847 31.0000
3.1669 -20.7092 0.0000 34.0000
1.3903 -23.1027 -0.1343 28.0000
-1.0173 -33.8524 -0.3619 15.0000
7.2018 -28.5271 0.8551 14.0000
3.2637 -20.9514 0.4991 44.0000
1.4865 -23.4088 0.4308 14.0000
-0.9252 -33.5145 0.4004 18.0000
0.1490 -0.6014 -0.2705 2.0000
2.2967 -9.0473 -2.4218 24.0000
2.3011 -9.3846 -1.3339 8.0000
10.7835 -43.9259 -4.2495 8.0000
15.2950 -61.8278 -4.0392 3.0000
1.1383 -19.3016 -1.4559 32.0000
-1.6893 -54.2221 -4.3749 7.0000
6.8554 -27.1760 -1.1138 45.0000
5.2878 -33.7815 -1.5909 12.0000
-2.3163 -88.0597 -5.0461 3.0000
6.7375 -27.1676 -0.4703 32.0000
3.6855 -24.0429 -0.5498 9.0000
-1.0495 -33.1935 -1.1375 45.0000
-0.3922 -14.6788 -2.6656 5.0000
-0.7994 -24.3826 -2.7423 88.0000
-1.1097 -33.6089 1.3578 45.0000
3.9464 -16.3363 0.9764 27.0000
-0.9808 -28.5230 2.3266 18.0000
4.0950 -17.2925 2.1828 16.0000
6.6364 -27.1652 0.1711 31.0000
3.1027 -20.7745 0.0000 33.0000
1.3134 -23.1724 -0.1347 34.0000
-1.1341 -33.8087 -0.3615 17.0000
7.0985 -28.5375 0.8547 13.0000
3.2266 -21.1998 0.5048 16.0000
-1.0414 -33.4861 0.4001 44.0000
0.1503 -0.6151 -0.2768 2.0000
2.2592 -9.0317 -2.4155 14.0000
2.2730 -9.4118 -1.3367 7.0000
7.0635 -29.2205 -2.8232 15.0000
13.2851 -54.5215 -3.5585 5.0000
5.4230 -36.4740 -2.5758 5.0000
1.0800 -19.4697 -1.4683 4.0000
-1.8723 -54.0365 -4.3604 44.0000
6.7907 -27.3210 -1.1188 20.0000
5.1616 -33.7455 -1.5883 51.0000
-1.7936 -60.2491 -3.4521 13.0000
1.3130 -23.3836 -0.6657 13.0000
-1.1684 -33.2746 -1.1404 17.0000
-0.4440 -14.6970 -2.6691 4.0000
-0.8841 -24.3698 -2.7412 16.0000
-1.2255 -33.5649 1.3562 7.0000
3.9102 -16.4373 0.9817 17.0000
-1.3450 -35.4712 2.8945 18.0000
7.0554 -29.3221 0.1845 6.0000
3.0453 -20.8891 0.0000 34.0000
1.2290 -23.1119 -0.1343 40.0000
-1.2276 -33.1450 -0.3544 30.0000
3.1467 -21.1714 0.5038 23.0000
1.5213 -26.9325 0.4956 11.0000
-1.1667 -33.7221 0.4030 34.0000
0.1492 -0.6200 -0.2789 2.0000
2.2184 -9.0020 -2.4054 13.0000
2.2447 -9.4390 -1.3394 6.0000
6.9557 -29.2208 -2.8208 33.0000
13.1005 -54.5918 -3.5601 3.0000
8.3870 -57.7870 -4.0804 4.0000
-2.0670 -54.1890 -4.3733 12.0000
9.4540 -63.2732 -2.9782 5.0000
-1.9459 -58.5013 -3.3523 31.0000
6.6905 -27.8070 -0.4806 3.0000
5.3555 -36.6361 -0.8374 8.0000
2.3549 -44.7549 -1.2750 11.0000
-1.2785 -33.1155 -1.1351 21.0000
-0.4963 -14.7249 -2.6745 4.0000
-0.9688 -24.3566 -2.7401 98.0000
-1.3607 -34.0096 1.3744 7.0000
3.8403 -16.3974 0.9785 14.0000
-1.5102 -36.4621 2.9759 10.0000
4.0397 -17.6060 2.2188 31.0000
6.5366 -27.5903 0.1735 4.0000
2.9858 -20.9937 0.0000 29.0000
1.1498 -23.1460 -0.1345 16.0000
-1.3461 -33.2105 -0.3552 28.0000
6.3664 -26.3807 0.7886 18.0000
3.0620 -21.1080 0.5021 41.0000
1.4252 -26.8977 0.4948 17.0000
-1.2840 -33.7078 0.4028 22.0000
0.1427 -0.6029 -0.2705 2.0000
2.1835 -8.9956 -2.4016 11.0000
2.2163 -9.4660 -1.3422 7.0000
6.8491 -29.2255 -2.8190 46.0000
8.1887 -57.8406 -4.0821 7.0000
-2.4322 -58.3991 -4.7139 6.0000
12.6872 -52.5880 -2.1513 2.0000
5.3282 -36.5385 -1.7182 7.0000
-2.1517 -58.5391 -3.3548 10.0000
6.5726 -27.7426 -0.4791 43.0000
3.0262 -21.2248 -0.4845 34.0000
2.3327 -47.4934 -1.3528 6.0000
-1.3983 -33.2107 -1.1385 9.0000
-0.5490 -14.7575 -2.6808 5.0000
-1.0538 -24.3531 -2.7401 106.0000
-1.4871 -34.1794 1.3815 33.0000
-1.8808 -41.8581 3.4173 15.0000
4.2321 -18.7430 2.3605 14.0000
6.8369 -29.3122 0.1841 8.0000
2.9138 -21.0139 0.0000 38.0000
1.3405 -29.0385 -0.1687 4.0000
-1.5461 -35.1086 -0.3756 9.0000
6.2951 -26.4903 0.7913 14.0000
3.0094 -21.2671 0.5056 38.0000
1.3192 -26.6578 0.4903 20.0000
-1.4073 -33.8380 0.4044 16.0000
0.1374 -0.5902 -0.2641 2.0000
2.1476 -8.9843 -2.3966 11.0000
2.1888 -9.4978 -1.3456 7.0000
10.3987 -45.0666 -4.3455 9.0000
11.7985 -50.7258 -3.3024 13.0000
8.5468 -61.9254 -4.3685 3.0000
-1.8809 -41.6966 -3.3653 48.0000
11.4141 -48.0483 -1.9638 3.0000
8.2386 -57.9034 -2.7225 4.0000
3.3162 -69.5143 -3.6671 6.0000
-2.3544 -58.4913 -3.3525 12.0000
6.4974 -27.8579 -0.4807 11.0000
2.9562 -21.2649 -0.4852 6.0000
2.1546 -47.2317 -1.3451 5.0000
-1.5092 -33.0958 -1.1347 40.0000
-0.6038 -14.8341 -2.6951 4.0000
-1.5991 -34.0193 1.3752 35.0000
-2.0269 -41.8513 3.4173 25.0000
4.9566 -21.5977 0.1355 30.0000
2.8344 -20.9793 0.0000 38.0000
-1.5905 -33.4649 -0.3580 40.0000
2.9481 -21.3715 0.5079 37.0000
1.2298 -26.7422 0.4918 15.0000
-1.5414 -34.1875 0.4087 18.0000
2.1107 -8.9682 -2.3903 11.0000
2.1600 -9.5247 -1.3483 7.0000
6.8015 -29.9619 -2.8854 45.0000
12.2619 -53.5635 -3.4844 6.0000
8.3259 -61.9202 -4.3661 4.0000
-2.7159 -55.8370 -4.5084 9.0000
11.2942 -48.2922 -1.9722 14.0000
8.0303 -57.8872 -2.7204 6.0000
3.0758 -69.5753 -3.6697 6.0000
-1.8276 -41.8061 -2.3959 30.0000
2.8880 -21.3197 -0.4862 31.0000
1.9853 -47.1340 -1.3421 9.0000
-1.6368 -33.3349 -1.1431 36.0000
-0.6586 -14.9007 -2.7076 12.0000
-1.2225 -24.3203 -2.7373 116.0000
-1.7120 -33.8987 1.3705 29.0000
-1.8536 -35.7077 2.9157 11.0000
4.8878 -21.6441 0.1357 17.0000
1.6058 -41.0128 -0.2383 12.0000
5.1098 -22.1943 0.6617 11.0000
2.8968 -21.5551 0.5120 38.0000
1.1218 -26.4017 0.4854 12.0000
-1.6744 -34.4615 0.4120 9.0000
2.0815 -8.9850 -2.3928 12.0000
2.1322 -9.5564 -1.3518 9.0000
6.5188 -29.1888 -2.8087 83.0000
10.9515 -48.6213 -3.1602 71.0000
8.1337 -62.1319 -4.3790 9.0000
3.2607 -86.0086 -6.4913 4.0000
-3.2209 -61.7647 -4.9882 5.0000
11.3475 -49.2953 -2.0115 4.0000
8.5596 -63.3248 -2.9747 4.0000
1.8664 -45.8333 -2.4164 29.0000
-1.9740 -41.8095 -2.3965 37.0000
4.9445 -21.8950 -0.3770 9.0000
2.8364 -21.5031 -0.4902 43.0000
1.8266 -47.2905 -1.3464 8.0000
-1.7537 -33.3389 -1.1435 28.0000
-0.7123 -14.9327 -2.7139 16.0000
-1.8414 -34.0971 1.3788 34.0000
4.8704 -22.1777 1.3200 17.0000
-1.9721 -35.5916 2.9067 21.0000
3.9062 -18.1847 2.2848 13.0000
4.8773 -21.9539 0.1375 16.0000
2.7381 -21.3904 0.0000 12.0000
0.9903 -27.7568 -0.1612 14.0000
-1.8129 -33.2483 -0.3558 22.0000
5.0367 -22.2315 0.6622 15.0000
2.7995 -21.3966 0.5080 34.0000
1.0367 -26.5852 0.4887 18.0000
-1.7876 -34.3207 0.4104 13.0000
0.1332 -0.6004 -0.2684 2.0000
2.0458 -8.9733 -2.3877 11.0000
2.1041 -9.5879 -1.3552 9.0000
6.6028 -30.0573 -2.8901 7.0000
10.8238 -48.8492 -3.1725 6.0000
7.5921 -59.6118 -4.1993 16.0000
1.5848 -46.0269 -3.4719 8.0000
-3.4362 -61.7481 -4.9878 4.0000
11.1610 -49.2713 -2.0090 10.0000
8.2981 -63.0473 -2.9603 8.0000
1.7085 -45.8944 -2.4193 17.0000
4.8647 -21.8975 -0.3768 42.0000
2.7779 -21.6418 -0.4931 32.0000
1.6406 -46.7022 -1.3295 13.0000
-2.3421 -41.7244 -1.4317 24.0000
-1.4285 -24.4932 -2.7580 92.0000
-1.9940 -34.0535 1.3774 33.0000
4.7823 -22.2581 1.3235 14.0000
-2.1196 -35.3485 2.8876 39.0000
3.8247 -18.2071 2.2854 12.0000
4.7415 -21.8097 0.1365 14.0000
2.6428 -21.4175 0.0000 34.0000
0.8631 -27.7210 -0.1610 12.0000
-1.9709 -33.3596 -0.3571 17.0000
4.9867 -22.4834 0.6691 11.0000
2.7030 -21.4140 0.5081 17.0000
0.9107 -26.4348 0.4859 28.0000
-1.9192 -33.8879 0.4053 5.0000
0.1275 -0.5878 -0.2620 2.0000
2.0062 -8.9872 -2.3890 12.0000
2.0668 -9.6264 -1.3593 8.0000
6.2717 -29.1817 -2.8030 34.0000
11.4918 -52.9990 -3.4388 8.0000
8.0200 -65.3339 -4.6001 7.0000
1.3709 -45.8641 -3.4591 41.0000
-5.9951 -99.5302 -8.0438 3.0000
14.2802 -64.3878 -2.6231 2.0000
7.5902 -59.7646 -2.8044 7.0000
1.5046 -46.0364 -2.4264 11.0000
4.7632 -21.9096 -0.3766 3.0000
2.6809 -21.6641 -0.4933 4.0000
0.9018 -29.4642 -0.8382 11.0000
-2.0938 -34.5159 -1.1844 7.0000
-1.5398 -24.6259 -2.7736 14.0000
-2.1451 -34.1794 1.3829 39.0000
4.6551 -22.1168 1.3139 14.0000
-2.2657 -35.3094 2.8852 41.0000
4.4222 -21.4940 2.6965 10.0000
1.0486 -38.9452 -0.2262 12.0000
-2.1109 -33.3560 -0.3572 13.0000
2.6018 -21.3309 0.5058 34.0000
0.8018 -26.4983 0.4870 21.0000
-2.0533 -33.7498 0.4038 45.0000
1.9695 -9.0003 -2.3903 12.0000
2.0337 -9.6689 -1.3641 8.0000
6.3115 -29.9774 -2.8770 69.0000
13.2149 -62.1984 -4.0326 8.0000
1.1826 -46.0190 -3.4704 22.0000
-4.1465 -64.3766 -5.2030 15.0000
11.5408 -53.0917 -2.1607 6.0000
7.3355 -59.7611 -2.8028 5.0000
1.3133 -46.0972 -2.4293 16.0000
-3.8451 -64.6142 -3.7073 8.0000
9.1597 -42.9730 -0.7387 4.0000
2.8757 -24.0625 -0.5478 7.0000
0.7593 -28.7433 -0.8176 36.0000
-2.6741 -41.2087 -1.4147 4.0000
-1.7715 -26.8216 -3.0220 7.0000
-2.2565 -34.0521 1.3780 46.0000
3.5028 -16.9420 1.0052 30.0000
-2.3832 -35.2168 2.8783 33.0000
4.3482 -21.5142 2.6971 14.0000
1.3392 -57.1833 -0.3322 34.0000
-2.2237 -33.2935 -0.3566 44.0000
4.7019 -21.9981 0.6535 13.0000
2.5249 -21.3200 0.5054 28.0000
0.7099 -26.5260 0.4875 24.0000
-2.1608 -33.5828 0.4019 30.0000
1.9595 -9.1064 -2.4167 14.0000
2.0069 -9.7099 -1.3689 7.0000
6.0676 -29.3265 -2.8124 8.0000
13.6702 -65.4630 -4.2412 3.0000
8.1084 -70.5271 -4.9614 12.0000
1.7342 -78.1486 -5.8950 4.0000
-4.3736 -64.3966 -5.2058 14.0000
10.4266 -48.7884 -1.9839 42.0000
7.4947 -62.8712 -2.9475 8.0000
1.1526 -46.1115 -2.4298 28.0000
-4.0608 -64.4459 -3.6984 15.0000
10.4960 -50.0946 -0.8606 7.0000
2.7847 -24.0128 -0.5464 8.0000
0.6600 -28.7907 -0.8189 12.0000
-2.3676 -34.6284 -1.1889 4.0000
-1.1036 -17.3792 -3.1625 20.0000
-2.3931 -34.2982 1.3883 20.0000
3.4407 -16.9395 1.0044 24.0000
-2.4969 -35.0790 2.8677 34.0000
4.6629 -23.4908 2.9433 10.0000
4.4401 -21.5822 0.1347 19.0000
0.5522 -27.6690 -0.1606 16.0000
-2.3332 -33.1908 -0.3556 35.0000
4.5737 -21.7699 0.6462 14.0000
2.4476 -21.3038 0.5048 36.0000
0.6207 -26.6732 0.4901 11.0000
-2.2820 -33.6349 0.4026 18.0000
0.1286 -0.6246 -0.2789 3.0000
1.9478 -9.2079 -2.4419 20.0000
1.9799 -9.7508 -1.3737 8.0000
6.0753 -29.8890 -2.8644 16.0000
15.9892 -77.9211 -5.0452 3.0000
6.8935 -61.8651 -4.3500 18.0000
10.2943 -49.0054 -1.9913 14.0000
6.5938 -57.0077 -2.6714 7.0000
1.6822 -78.2782 -4.1259 4.0000
-4.2931 -64.5410 -3.7047 12.0000
9.5030 -46.1598 -0.7923 4.0000
2.6802 -23.8386 -0.5422 4.0000
0.6984 -35.9636 -1.0231 3.0000
-4.5198 -62.8202 -2.1584 7.0000
-1.1646 -17.3801 -3.1634 12.0000
-1.9566 -26.7788 -3.0187 11.0000
-2.6511 -36.1730 1.4647 16.0000
4.3919 -22.0077 1.3046 9.0000
-2.6606 -35.6217 2.9128 10.0000
4.5865 -23.5362 2.9470 8.0000
4.6434 -22.9746 0.1433 13.0000
2.3745 -21.8764 0.0000 39.0000
0.4547 -27.6157 -0.1603 24.0000
-2.4454 -33.1326 -0.3550 21.0000
4.4481 -21.5459 0.6391 16.0000
-2.3812 -33.3724 0.3995 40.0000
0.1302 -0.6428 -0.2874 3.0000
1.9216 -9.2430 -2.4495 17.0000
1.9517 -9.7868 -1.3779 8.0000
5.9944 -30.0272 -2.8756 11.0000
9.7401 -48.3339 -3.1263 9.0000
8.1205 -75.2583 -5.2903 4.0000
-7.8935 -105.2960 -8.5185 3.0000
11.1176 -53.8555 -2.1869 5.0000
6.9877 -62.3164 -2.9191 10.0000
-8.3540 -119.2413 -6.8481 4.0000
10.1856 -50.3626 -0.8639 10.0000
2.4589 -22.5806 -0.5134 43.0000
0.8254 -51.8624 -1.4758 7.0000
-2.5871 -34.3170 -1.1788 14.0000
-1.2273 -17.4054 -3.1688 13.0000
-2.0485 -26.7520 -3.0164 9.0000
-2.6505 -34.5148 1.3978 19.0000
4.3006 -21.9494 1.3003 16.0000
-3.2832 -41.9715 3.4336 23.0000
4.0806 -21.3392 2.6697 6.0000
4.5846 -23.0985 0.1440 16.0000
2.2897 -21.8050 0.0000 37.0000
0.3581 -27.6021 -0.1602 8.0000
-2.5761 -33.3183 -0.3571 22.0000
4.3410 -21.4045 0.6345 29.0000
0.6223 -38.2484 0.7030 5.0000
-2.4973 -33.3589 0.3995 21.0000
0.1187 -0.5989 -0.2662 3.0000
1.8922 -9.2639 -2.4533 18.0000
1.9252 -9.8325 -1.3834 8.0000
5.8972 -30.0870 -2.8793 27.0000
10.7596 -54.3687 -3.5145 18.0000
7.8614 -75.3210 -5.2928 2.0000
1.0182 -86.9220 -6.5560 8.0000
-3.6880 -47.0320 -3.8041 30.0000
10.8858 -53.6785 -2.1782 7.0000
6.7388 -62.0524 -2.9056 20.0000
-8.7482 -118.9127 -6.8310 3.0000
9.8967 -49.8291 -0.8542 48.0000
2.3753 -22.5443 -0.5123 17.0000
0.4458 -35.8477 -1.0197 3.0000
-2.6868 -34.0537 -1.1700 28.0000
-1.2888 -17.4108 -3.1706 11.0000
-2.1411 -26.7348 -3.0153 5.0000
-2.7694 -34.4854 1.3970 52.0000
4.2419 -22.0574 1.3058 15.0000
3.9988 -21.3143 2.6648 34.0000
2.2262 -21.9372 0.0000 31.0000
0.2604 -27.4582 -0.1594 22.0000
-2.7279 -33.7476 -0.3618 30.0000
4.2585 -21.3804 0.6333 13.0000
2.2317 -21.3979 0.5064 45.0000
-2.6153 -33.3699 0.3997 29.0000
0.1193 -0.6126 -0.2726 3.0000
1.8580 -9.2610 -2.4508 19.0000
1.8983 -9.8780 -1.3889 7.0000
9.3287 -48.4725 -4.6380 12.0000
10.5926 -54.5235 -3.5221 5.0000
7.3621 -73.0056 -5.1281 8.0000
0.7148 -86.9300 -6.5564 4.0000
-3.8627 -47.1480 -3.8146 16.0000
10.7433 -53.9416 -2.1873 6.0000
6.4924 -61.7924 -2.8924 3.0000
0.9339 -84.7871 -4.4684 3.0000
-9.1951 -119.2945 -6.8547 6.0000
9.3925 -48.1705 -0.8251 7.0000
2.2976 -22.5624 -0.5126 40.0000
0.4653 -52.0918 -1.4822 13.0000
-2.8143 -34.1487 -1.1736 20.0000
-1.3515 -17.4307 -3.1750 10.0000
-2.2257 -26.6232 -3.0036 3.0000
-2.9157 -34.7842 1.4095 22.0000
4.1603 -22.0476 1.3043 4.0000
3.9334 -21.3770 2.6709 15.0000
2.2145 -22.6067 0.0000 11.0000
0.1647 -27.4840 -0.1595 32.0000
-2.8065 -33.2746 -0.3569 26.0000
4.1559 -21.2529 0.6291 29.0000
2.1585 -21.4205 0.5068 38.0000
0.2522 -27.1142 0.4981 36.0000
-2.7339 -33.3855 0.4000 11.0000
0.1172 -0.6130 -0.2726 3.0000
1.8275 -9.2769 -2.4533 22.0000
1.8712 -9.9235 -1.3943 7.0000
9.2232 -48.8423 -4.6703 11.0000
10.3816 -54.4523 -3.5152 4.0000
8.2531 -84.8013 -5.9551 7.0000
0.4249 -89.8038 -6.7731 5.0000
10.5405 -53.9052 -2.1843 5.0000
6.2267 -61.3228 -2.8693 4.0000
0.6550 -87.0716 -4.5887 5.0000
-3.7944 -47.1196 -2.7069 43.0000
10.4653 -54.6843 -0.9362 4.0000
2.2233 -22.6151 -0.5136 12.0000
0.2471 -45.3709 -1.2908 7.0000
-2.9356 -34.1636 -1.1745 28.0000
-1.4123 -17.4259 -3.1750 12.0000
-2.3229 -26.6648 -3.0092 5.0000
-3.2313 -36.9935 1.4996 29.0000
4.0615 -21.9442 1.2974 22.0000
-3.7442 -42.1780 3.4535 32.0000
3.8728 -21.4687 2.6807 26.0000
4.0544 -21.6121 0.1345 15.0000
2.1078 -22.3206 0.0000 13.0000
0.0689 -27.5294 -0.1598 33.0000
-2.9529 -33.6082 -0.3605 15.0000
3.2129 -16.7469 0.4951 14.0000
2.1006 -21.6020 0.5109 28.0000
0.1580 -27.1799 0.4993 18.0000
-3.1973 -37.4307 0.4487 16.0000
0.1168 -0.6223 -0.2768 4.0000
1.7970 -9.2927 -2.4558 18.0000
1.8474 -9.9884 -1.4026 7.0000
9.0971 -49.1140 -4.6933 13.0000
9.2993 -49.7208 -3.2074 3.0000
6.4795 -69.0824 -4.8491 4.0000
0.1456 -117.8300 -8.8877 9.0000
-6.2987 -70.7740 -5.7311 9.0000
10.2336 -53.3235 -2.1593 17.0000
6.0160 -61.3790 -2.8710 8.0000
0.3256 -80.7322 -4.2544 15.0000
-3.9718 -47.2603 -2.7157 3.0000
9.0633 -48.2742 -0.8258 10.0000
0.0697 -35.4555 -1.0084 33.0000
-3.0495 -34.0934 -1.1724 40.0000
-1.4715 -17.4013 -3.1715 13.0000
-2.4173 -26.6713 -3.0108 5.0000
-3.6325 -39.9722 1.6210 13.0000
3.9947 -22.0122 1.3006 21.0000
3.9735 -21.5967 0.1343 18.0000
2.0621 -22.6814 0.0000 36.0000
-0.0287 -28.9494 -0.1680 15.0000
-3.0565 -33.4484 -0.3589 24.0000
3.0840 -16.3848 0.4841 32.0000
0.0660 -28.4801 0.5232 23.0000
-3.3390 -37.5438 0.4502 11.0000
0.1155 -0.6272 -0.2789 4.0000
1.7663 -9.3084 -2.4583 16.0000
1.8232 -10.0533 -1.4108 8.0000
8.9843 -49.4687 -4.7242 13.0000
10.4156 -56.7812 -3.6608 11.0000
6.2025 -68.7072 -4.8212 4.0000
-0.2656 -117.8198 -8.8869 5.0000
-8.1796 -88.3985 -7.1614 14.0000
10.2944 -54.6698 -2.2124 6.0000
5.8182 -61.5736 -2.8791 11.0000
0.0441 -81.2871 -4.2836 8.0000
-3.1790 -36.3210 -2.0872 22.0000
3.9250 -21.3334 -0.3643 12.0000
2.1122 -23.1428 -0.5252 21.0000
-0.0540 -35.3756 -1.0061 10.0000
-3.1731 -34.1323 -1.1741 19.0000
-1.5309 -17.3813 -3.1688 12.0000
-2.5034 -26.5885 -3.0024 38.0000
-3.7866 -40.1134 1.6272 7.0000
3.9178 -22.0260 1.3006 13.0000
-4.0423 -42.1906 3.4568 14.0000
4.2767 -24.6881 3.0796 7.0000
4.0954 -22.7027 0.1411 10.0000
1.9742 -22.5888 0.0000 18.0000
-0.1298 -28.9542 -0.1681 8.0000
-3.1940 -33.6565 -0.3613 20.0000
4.0241 -21.7867 0.6436 10.0000
2.0608 -22.8458 0.5400 16.0000
-3.5871 -38.7964 0.4654 19.0000
0.1141 -0.6320 -0.2810 4.0000
1.7347 -9.3193 -2.4596 17.0000
1.7968 -10.1083 -1.4177 9.0000
8.8640 -49.7938 -4.7522 11.0000
10.2014 -56.7288 -3.6551 29.0000
5.9557 -68.6489 -4.8156 11.0000
-0.2040 -35.7030 -2.6910 46.0000
10.0590 -54.4646 -2.2026 7.0000
5.6155 -61.7278 -2.8854 5.0000
-0.2396 -81.2718 -4.2828 6.0000
-3.3117 -36.3743 -2.0909 45.0000
3.8354 -21.2634 -0.3629 40.0000
1.9798 -22.5624 -0.5119 43.0000
-0.1778 -35.4451 -1.0081 8.0000
-3.4970 -36.2399 -1.2471 16.0000
-1.5902 -17.3612 -3.1661 12.0000
-2.6006 -26.6241 -3.0075 36.0000
-3.8573 -39.3939 1.5986 45.0000
3.8392 -22.0297 1.3000 4.0000
4.2037 -24.7811 3.0894 10.0000
3.9961 -22.6036 0.1404 9.0000
1.9004 -22.6554 0.0000 34.0000
-0.4048 -50.6125 -0.2939 5.0000
-3.5489 -36.0533 -0.3872 16.0000
3.0480 -16.8387 0.4969 5.0000
1.9824 -22.8678 0.5404 40.0000
-0.1310 -28.0949 0.5162 28.0000
-3.7771 -39.3510 0.4722 9.0000
0.1127 -0.6369 -0.2832 5.0000
1.7048 -9.3396 -2.4634 15.0000
1.7777 -10.2073 -1.4307 10.0000
8.7663 -50.2609 -4.7939 10.0000
3.2960 -39.6061 -2.7763 40.0000
-0.3300 -35.8566 -2.7026 34.0000
-5.1979 -52.2211 -4.2321 34.0000
9.8830 -54.5781 -2.2058 14.0000
5.3982 -61.7272 -2.8845 19.0000
-0.2300 -35.8545 -1.8883 17.0000
3.7838 -21.4046 -0.3651 17.0000
1.9018 -22.5792 -0.5121 35.0000
-0.3060 -35.9641 -1.0229 43.0000
-3.6390 -36.3816 -1.2525 25.0000
-1.6504 -17.3506 -3.1652 11.0000
-2.6965 -26.6446 -3.0108 18.0000
-3.9883 -39.3156 1.5959 57.0000
4.0373 -23.6519 1.3950 35.0000
4.2947 -25.8629 3.2225 10.0000
3.6215 -20.9129 0.1298 41.0000
1.8160 -22.5971 0.0000 28.0000
-0.5791 -50.4108 -0.2928 6.0000
-3.6534 -35.8318 -0.3849 8.0000
2.9499 -16.6278 0.4903 5.0000
1.9453 -23.3876 0.5525 31.0000
-0.2289 -28.0743 0.5158 19.0000
-3.9134 -39.3276 0.4721 8.0000
0.1105 -0.6373 -0.2832 4.0000
1.6739 -9.3550 -2.4659 21.0000
1.7570 -10.3013 -1.4431 12.0000
8.6503 -50.6396 -4.8271 11.0000
12.3659 -71.6238 -4.6098 4.0000
3.1779 -39.8709 -2.7941 8.0000
-0.6606 -51.9781 -3.9192 13.0000
9.6567 -54.4105 -2.1976 11.0000
5.1764 -61.6710 -2.8810 4.0000
-0.3546 -35.7985 -1.8854 49.0000
-5.1393 -52.3718 -3.0135 17.0000
4.1038 -23.6934 -0.4039 11.0000
1.8407 -22.8049 -0.5171 25.0000
-4.0638 -39.2416 -1.3515 17.0000
-1.7104 -17.3399 -3.1643 12.0000
-2.7905 -26.6449 -3.0119 9.0000
-4.1464 -39.5002 1.6040 41.0000
3.9555 -23.6708 1.3953 32.0000
4.1653 -25.6377 3.1926 5.0000
3.5251 -20.7874 0.1289 31.0000
1.7291 -22.4986 0.0000 36.0000
-0.5363 -35.8303 -0.2080 27.0000
-4.1813 -39.6324 -0.4260 24.0000
3.7271 -21.4337 0.6320 7.0000
-0.3280 -28.1683 0.5175 29.0000
-4.0645 -39.4480 0.4737 19.0000
0.1083 -0.6376 -0.2832 4.0000
1.6421 -9.3655 -2.4672 22.0000
1.7424 -10.4343 -1.4609 15.0000
3.8265 -22.8998 -2.1795 36.0000
10.6595 -63.0564 -4.0557 3.0000
5.2744 -69.2048 -4.8505 5.0000
-0.8445 -52.1250 -3.9305 3.0000
-8.1875 -76.7884 -6.2291 3.0000
9.4290 -54.2274 -2.1889 10.0000
3.2047 -39.8580 -1.8608 37.0000
-4.9436 -48.6339 -2.7993 5.0000
4.0102 -23.6435 -0.4029 23.0000
1.7781 -23.0305 -0.5221 51.0000
-0.5578 -36.0060 -1.0242 10.0000
-4.2029 -39.2471 -1.3522 46.0000
-1.7704 -17.3289 -3.1634 12.0000
-2.8926 -26.7189 -3.0215 4.0000
-4.3004 -39.6345 1.6101 38.0000
3.5347 -22.2508 2.7686 108.0000
3.4886 -21.0166 0.1303 34.0000
1.6678 -22.7388 0.0000 17.0000
-0.6622 -35.8732 -0.2083 10.0000
3.6354 -21.3480 0.6291 34.0000
2.9239 -38.3780 0.9068 8.0000
-0.4274 -28.2419 0.5189 6.0000
-4.1746 -39.1750 0.4706 35.0000
0.1053 -0.6336 -0.2810 5.0000
1.6102 -9.3760 -2.4684 26.0000
1.7235 -10.5479 -1.4760 9.0000
3.7457 -22.9081 -2.1790 6.0000
3.7670 -22.7890 -1.4633 48.0000
5.0118 -68.9343 -4.8303 5.0000
-8.4598 -76.7990 -6.2323 4.0000
9.2497 -54.3190 -2.1913 7.0000
3.0690 -39.9137 -1.8629 12.0000
-0.8836 -52.2799 -2.7546 14.0000
-8.0914 -76.9033 -4.4293 4.0000
2.9641 -40.2005 -0.9117 13.0000
-0.6779 -35.7140 -1.0160 31.0000
-4.3525 -39.3464 -1.3561 32.0000
-1.8309 -17.3226 -3.1634 12.0000
-2.9980 -26.8173 -3.0338 5.0000
-4.4393 -39.6242 1.6103 23.0000
5.6564 -35.3493 2.0825 6.0000
3.4669 -22.3268 2.7766 9.0000
3.4304 -21.1224 0.1309 13.0000
-0.7879 -35.8957 -0.2084 13.0000
-4.8778 -43.3284 -0.4661 12.0000
3.5584 -21.3458 0.6286 21.0000
2.2195 -30.5459 0.7213 7.0000
-0.6301 -33.8134 0.6215 17.0000
-4.3524 -39.5329 0.4750 16.0000
0.1031 -0.6339 -0.2810 6.0000
1.5783 -9.3863 -2.4697 24.0000
3.6728 -22.9653 -2.1833 2.0000
3.7074 -22.9251 -1.4712 49.0000
-2.0092 -86.6105 -6.5338 2.0000
-6.0431 -53.1684 -4.3153 3.0000
3.8428 -23.0732 -0.9293 9.0000
-5.2511 -48.3054 -2.7824 4.0000
3.4276 -21.1050 -0.3591 25.0000
1.6491 -23.4961 -0.5324 7.0000
-0.7608 -33.8577 -0.9632 16.0000
-4.5194 -39.5891 -1.3650 14.0000
-1.8908 -17.3112 -3.1625 13.0000
-3.1025 -26.9005 -3.0444 8.0000
-4.6534 -40.2635 1.6369 25.0000
5.2874 -33.8006 1.9901 8.0000
4.8091 -31.6851 3.9403 4.0000
3.3873 -21.3268 0.1320 14.0000
1.5352 -23.1441 0.0000 36.0000
-0.9103 -35.7778 -0.2078 5.0000
-5.0469 -43.4651 -0.4677 20.0000
3.5830 -21.9648 0.6465 23.0000
2.1384 -30.9225 0.7301 13.0000
-0.7456 -33.6960 0.6194 3.0000
-4.4943 -39.5523 0.4755 17.0000
0.1001 -0.6298 -0.2789 5.0000
1.5455 -9.3918 -2.4697 24.0000
2.4990 -15.9943 -1.5185 7.0000
3.6499 -23.0808 -1.4804 10.0000
1.2521 -19.0823 -1.3344 41.0000
-2.3152 -86.7425 -6.5444 10.0000
-6.2205 -53.0777 -4.3097 4.0000
3.7397 -22.9485 -0.9238 48.0000
4.7734 -68.2941 -3.1871 4.0000
-1.9955 -83.5051 -4.4018 5.0000
-5.4247 -48.3314 -2.7850 20.0000
3.3390 -21.0230 -0.3575 12.0000
1.5518 -23.2723 -0.5272 43.0000
-0.9293 -35.7884 -1.0182 16.0000
-5.0195 -42.6450 -1.4711 15.0000
-1.9507 -17.2996 -3.1616 12.0000
-3.2122 -27.0227 -3.0595 11.0000
-4.7554 -39.9246 1.6238 41.0000
3.6065 -23.6053 1.3884 5.0000
3.4835 -23.5138 2.9214 17.0000
3.2891 -21.1854 0.1311 7.0000
1.4556 -23.1692 0.0000 32.0000
-1.0231 -35.3595 -0.2054 8.0000
-5.1778 -43.2735 -0.4659 10.0000
3.4638 -21.7107 0.6387 22.0000
2.0219 -30.8000 0.7270 4.0000
-0.8609 -33.6032 0.6177 17.0000
-4.6370 -39.5761 0.4759 29.0000
0.0972 -0.6257 -0.2768 5.0000
1.5127 -9.3971 -2.4697 16.0000
2.3405 -15.3140 -2.1420 5.0000
2.4402 -15.9832 -1.5167 8.0000
5.2068 -33.6709 -2.1596 23.0000
1.1923 -19.1961 -1.3421 81.0000
-2.6445 -87.6110 -6.6106 4.0000
-6.4022 -53.0260 -4.3073 5.0000
3.6729 -23.0452 -0.9271 45.0000
4.5906 -69.1476 -3.2262 7.0000
-2.3441 -85.5790 -4.5116 3.0000
-5.6072 -48.4312 -2.7918 3.0000
3.2656 -21.0346 -0.3575 14.0000
1.4699 -23.2676 -0.5269 40.0000
-0.9878 -33.5318 -0.9541 17.0000
-5.1773 -42.7017 -1.4737 12.0000
-2.0105 -17.2878 -3.1607 11.0000
-3.3271 -27.1790 -3.0785 9.0000
-4.9033 -39.9772 1.6266 57.0000
3.5049 -23.4894 1.3808 48.0000
3.1084 -21.5024 2.6697 11.0000
3.2098 -21.1621 0.1309 18.0000
1.3851 -23.3489 0.0000 17.0000
-1.0989 -33.8866 -0.1968 8.0000
-5.0596 -41.0718 -0.4423 14.0000
3.3370 -21.3967 0.6291 8.0000
1.7546 -28.2376 0.6663 7.0000
-0.9731 -33.4251 0.6145 21.0000
-4.7859 -39.6490 0.4770 29.0000
0.0950 -0.6260 -0.2768 5.0000
1.4806 -9.4071 -2.4709 16.0000
2.2856 -15.3123 -2.1406 7.0000
2.3785 -15.9523 -1.5129 7.0000
5.0908 -33.6987 -2.1602 23.0000
-2.0277 -60.2246 -4.5437 11.0000
-6.5841 -52.9786 -4.3053 4.0000
5.2734 -33.8289 -1.3610 9.0000
1.8400 -29.2804 -1.3648 13.0000
-1.8083 -58.5657 -3.0871 7.0000
-5.0239 -42.1115 -2.4282 11.0000
1.3759 -23.0580 -0.5221 44.0000
-1.1587 -35.1616 -1.0006 11.0000
-5.3462 -42.8420 -1.4792 14.0000
-2.0703 -17.2758 -3.1598 10.0000
-4.1806 -33.1812 -3.7610 27.0000
-5.2770 -41.8136 1.7022 34.0000
3.4330 -23.5706 1.3849 11.0000
3.0146 -21.3804 2.6532 42.0000
3.1293 -21.1287 0.1306 31.0000
-1.2689 -35.3216 -0.2052 3.0000
-5.1935 -40.9795 -0.4415 18.0000
3.2925 -21.6059 0.6349 10.0000
1.6583 -28.2835 0.6672 10.0000
-1.0929 -33.5165 0.6162 20.0000
-5.0027 -40.2621 0.4846 20.0000
0.0928 -0.6263 -0.2768 5.0000
1.4485 -9.4170 -2.4722 18.0000
2.2278 -15.2908 -2.1365 7.0000
2.3120 -15.8866 -1.5059 7.0000
-3.3520 -90.1713 -6.8054 8.0000
-6.7633 -52.9108 -4.3017 4.0000
5.1455 -33.7829 -1.3584 35.0000
1.7303 -29.1620 -1.3589 49.0000
-2.0108 -58.5041 -3.0842 27.0000
-5.1660 -42.0541 -2.4259 6.0000
1.2982 -23.1126 -0.5232 43.0000
-1.4757 -40.4816 -1.1523 7.0000
-5.8128 -45.2913 -1.5645 9.0000
-2.1306 -17.2685 -3.1598 10.0000
-4.2958 -33.1615 -3.7605 5.0000
-5.4635 -42.1070 1.7149 30.0000
3.3436 -23.5330 1.3820 9.0000
2.9738 -21.6366 2.6837 15.0000
3.0197 -20.8921 0.1291 39.0000
1.2145 -23.2132 0.0000 17.0000
-1.3486 -34.2128 -0.1988 116.0000
-5.3359 -40.9562 -0.4415 21.0000
3.2097 -21.5678 0.6334 27.0000
1.7853 -32.3767 0.7638 4.0000
-1.2118 -33.5674 0.6172 12.0000
-5.1603 -40.3783 0.4862 26.0000
0.0906 -0.6267 -0.2768 5.0000
1.4156 -9.4220 -2.4722 33.0000
2.1709 -15.2739 -2.1331 7.0000
2.2523 -15.8650 -1.5031 7.0000
5.2482 -36.4598 -2.3350 8.0000
-2.3731 -58.3658 -4.4045 29.0000
-6.9434 -52.8523 -4.2988 5.0000
7.4802 -50.2709 -2.0211 5.0000
1.6355 -29.2925 -1.3648 17.0000
-2.2203 -58.6365 -3.0916 12.0000
-5.6980 -45.0815 -2.6019 12.0000
3.5151 -24.3133 -0.4127 3.0000
1.2206 -23.1769 -0.5246 39.0000
-2.5742 -64.4124 -1.8344 2.0000
-5.9316 -44.9735 -1.5542 18.0000
-2.1902 -17.2561 -3.1589 10.0000
-4.4082 -33.1217 -3.7577 17.0000
-5.6084 -42.0728 1.7143 28.0000
3.1949 -23.0650 1.3538 43.0000
2.8903 -21.5879 2.6764 10.0000
2.9482 -20.9124 0.1291 32.0000
1.1352 -23.2522 0.0000 8.0000
-1.4260 -33.2288 -0.1931 16.0000
-5.4868 -40.9967 -0.4421 38.0000
3.1157 -21.4503 0.6297 20.0000
1.5075 -29.1979 0.6886 31.0000
-1.3290 -33.5630 0.6172 29.0000
-5.3553 -40.7715 0.4912 20.0000
0.0891 -0.6315 -0.2789 4.0000
1.3835 -9.4317 -2.4735 27.0000
2.1149 -15.2618 -2.1303 7.0000
2.1942 -15.8530 -1.5012 6.0000
8.1183 -57.8049 -3.7017 8.0000
3.9559 -82.0991 -5.7448 4.0000
-2.5804 -58.4368 -4.4106 7.0000
-7.1212 -52.7783 -4.2948 4.0000
5.3134 -36.5966 -1.4701 6.0000
-1.3688 -33.1107 -1.7451 22.0000
-5.8670 -45.1504 -2.6070 37.0000
3.4526 -24.4838 -0.4154 3.0000
1.1437 -23.2609 -0.5264 10.0000
-1.4769 -33.9991 -0.9679 9.0000
-6.1738 -45.5814 -1.5760 25.0000
-2.2504 -17.2483 -3.1589 11.0000
-4.5198 -33.0766 -3.7543 42.0000
-5.7647 -42.1223 1.7171 10.0000
3.1191 -23.1106 1.3558 31.0000
2.9711 -22.7936 2.8248 15.0000
1.8424 -40.6182 0.0000 6.0000
-1.5531 -33.4634 -0.1945 22.0000
-5.6898 -41.4132 -0.4468 28.0000
3.0085 -21.2334 0.6230 22.0000
1.4215 -29.5325 0.6964 11.0000
-1.4578 -33.8278 0.6222 18.0000
-5.5565 -41.1886 0.4964 26.0000
0.0869 -0.6318 -0.2789 4.0000
1.3512 -9.4412 -2.4747 17.0000
2.0589 -15.2495 -2.1276 7.0000
2.1322 -15.8113 -1.4965 7.0000
3.9488 -88.3658 -6.1825 3.0000
-1.9869 -41.7041 -3.1473 47.0000
-7.2993 -52.7087 -4.2912 4.0000
5.1870 -36.6248 -1.4705 3.0000
-1.4860 -33.1406 -1.7469 14.0000
-6.0212 -45.1049 -2.6056 25.0000
2.9334 -21.3459 -0.3619 40.0000
1.0629 -23.2747 -0.5266 4.0000
-1.5543 -33.1151 -0.9428 35.0000
-6.3253 -45.5051 -1.5741 30.0000
-2.3100 -17.2355 -3.1580 13.0000
-4.6366 -33.0704 -3.7554 35.0000
-9.9869 -71.0980 2.9009 7.0000
2.9015 -22.8826 2.8346 25.0000
2.8599 -21.3636 0.1318 36.0000
1.2035 -28.7647 0.0000 4.0000
-1.6689 -33.4378 -0.1944 13.0000
-6.5152 -46.2200 -0.4990 17.0000
2.9864 -21.6200 0.6340 16.0000
1.1838 -26.5261 0.6253 6.0000
-1.5989 -34.3169 0.6313 9.0000
-5.8650 -42.3575 0.5108 20.0000
0.0847 -0.6321 -0.2789 4.0000
1.3189 -9.4507 -2.4760 18.0000
2.0031 -15.2369 -2.1248 7.0000
2.0757 -15.8087 -1.4956 8.0000
9.1499 -68.6180 -4.3904 4.0000
3.6521 -88.6631 -6.2024 5.0000
-7.4769 -52.6385 -4.2876 4.0000
7.9952 -57.8838 -2.3239 8.0000
2.0689 -45.6085 -2.1248 18.0000
-1.6024 -33.1502 -1.7477 13.0000
-6.2119 -45.3260 -2.6196 26.0000
2.8543 -21.3213 -0.3613 15.0000
1.9769 -46.8262 -1.0602 12.0000
-1.7487 -34.6718 -0.9874 18.0000
-6.4926 -45.5421 -1.5761 25.0000
-2.3701 -17.2273 -3.1580 12.0000
-4.7513 -33.0491 -3.7549 34.0000
-10.2678 -71.2902 2.9101 8.0000
4.3340 -33.8757 1.9866 8.0000
2.7879 -21.3933 0.1319 16.0000
1.1112 -28.9786 0.0000 4.0000
-1.7821 -33.3668 -0.1940 14.0000
-6.7002 -46.3603 -0.5008 14.0000
2.9042 -21.5808 0.6326 15.0000
1.0922 -26.5551 0.6259 24.0000
-1.7164 -34.2662 0.6305 10.0000
-8.9721 -63.1560 0.7622 7.0000
0.0825 -0.6324 -0.2789 4.0000
1.2866 -9.4600 -2.4772 32.0000
1.9474 -15.2242 -2.1221 7.0000
2.0205 -15.8159 -1.4956 10.0000
10.9329 -84.2222 -5.3869 5.0000
3.2439 -86.0586 -6.0193 5.0000
-7.9135 -54.3481 -4.4292 8.0000
7.5371 -56.0100 -2.2475 6.0000
1.9128 -45.6903 -2.1283 18.0000
-1.7318 -33.4087 -1.7617 40.0000
-6.4361 -45.7736 -2.6468 21.0000
2.8122 -21.5790 -0.3655 9.0000
1.9069 -49.2454 -1.1149 4.0000
-3.1506 -58.3913 -1.6639 5.0000
-6.6840 -45.7417 -1.5839 17.0000
-2.4302 -17.2189 -3.1580 8.0000
-4.8652 -33.0225 -3.7537 29.0000
2.7356 -22.0077 1.2892 28.0000
2.5325 -21.1580 2.6183 27.0000
2.7114 -21.3880 0.1318 25.0000
0.9343 -26.8136 0.0000 19.0000
-1.8943 -33.2855 -0.1935 17.0000
-6.9844 -47.1626 -0.5097 13.0000
2.8165 -21.4966 0.6298 14.0000
1.0004 -26.5837 0.6264 25.0000
-1.8379 -34.2949 0.6311 18.0000
-9.2040 -63.2034 0.7632 8.0000
0.0803 -0.6326 -0.2789 4.0000
1.2535 -9.4645 -2.4772 22.0000
1.8918 -15.2112 -2.1193 7.0000
1.9652 -15.8228 -1.4956 10.0000
7.5230 -59.5959 -3.8093 30.0000
3.0473 -89.1052 -6.2317 3.0000
-8.0826 -54.1821 -4.4179 35.0000
7.4805 -57.0960 -2.2901 6.0000
-1.8495 -33.4224 -1.7627 5.0000
-6.6208 -45.9238 -2.6568 30.0000
2.7438 -21.6433 -0.3664 7.0000
1.6626 -47.1985 -1.0684 5.0000
-1.9956 -34.7436 -0.9898 28.0000
-6.8955 -46.0640 -1.5959 26.0000
-2.4896 -17.2055 -3.1571 7.0000
-4.9811 -33.0102 -3.7543 22.0000
2.6660 -22.0766 1.2927 32.0000
2.4517 -21.1076 2.6110 32.0000
2.6348 -21.3824 0.1317 11.0000
0.8443 -26.9317 0.0000 21.0000
-2.0069 -33.2188 -0.1932 10.0000
-7.1647 -47.2417 -0.5108 14.0000
2.7472 -21.5510 0.6311 13.0000
0.9141 -26.7769 0.6309 11.0000
-2.2690 -39.7385 0.7316 25.0000
-9.7309 -65.2230 0.7880 5.0000
0.0775 -0.6284 -0.2768 4.0000
1.2217 -9.4784 -2.4798 22.0000
1.8363 -15.1981 -2.1166 7.0000
1.9124 -15.8494 -1.4975 10.0000
1.4061 -45.8265 -3.2032 38.0000
-6.1202 -99.2389 -7.4991 5.0000
-8.2724 -54.1585 -4.4183 9.0000
7.1844 -56.3636 -2.2597 7.0000
2.4421 -69.9964 -3.2607 4.0000
-1.9982 -33.9590 -1.7914 4.0000
-6.8023 -46.0436 -2.6651 26.0000
2.6633 -21.6130 -0.3658 16.0000
1.4959 -47.1441 -1.0670 10.0000
-2.1190 -34.7713 -0.9908 14.0000
-7.7782 -50.7468 -1.7592 7.0000
-2.5482 -17.1870 -3.1553 8.0000
-5.0925 -32.9681 -3.7515 11.0000
2.5965 -22.1502 1.2965 4.0000
2.3797 -21.1308 2.6128 33.0000
2.7305 -22.8113 0.1405 28.0000
-2.1365 -33.4262 -0.1944 23.0000
-8.0280 -51.7122 -0.5595 11.0000
0.8687 -28.3437 0.6678 14.0000
-2.0289 -33.4829 0.6164 13.0000
-10.0008 -65.4654 0.7913 8.0000
0.0753 -0.6287 -0.2768 4.0000
1.1856 -9.4586 -2.4735 26.0000
1.7809 -15.1847 -2.1138 9.0000
1.8588 -15.8708 -1.4989 9.0000
7.5594 -63.4424 -4.0519 5.0000
1.2513 -46.0206 -3.2165 17.0000
-4.1967 -64.4000 -4.8665 25.0000
-8.4545 -54.0850 -4.4147 11.0000
7.4163 -59.8441 -2.3983 8.0000
2.8137 -89.6036 -4.1741 4.0000
-4.0344 -64.6893 -3.4151 3.0000
-6.9734 -46.0887 -2.6691 12.0000
2.7575 -23.0368 -0.3897 5.0000
1.3049 -46.2147 -1.0458 33.0000
-2.6827 -41.6217 -1.1865 8.0000
-8.5140 -54.2787 -1.8827 8.0000
-2.6067 -17.1682 -3.1535 13.0000
-5.2169 -33.0090 -3.7582 7.0000
2.4977 -21.9707 1.2855 28.0000
2.3081 -21.1587 2.6153 17.0000
2.6462 -22.7810 0.1403 12.0000
0.6547 -26.8719 0.0000 31.0000
-2.2663 -33.6131 -0.1956 13.0000
-8.6322 -54.3503 -0.5884 5.0000
2.5841 -21.4654 0.6281 22.0000
0.7694 -28.3316 0.6675 4.0000
-2.1499 -33.5404 0.6176 10.0000
-10.6867 -68.3544 0.8267 5.0000
0.0731 -0.6289 -0.2768 4.0000
1.1508 -9.4482 -2.4697 23.0000
1.7256 -15.1711 -2.1111 6.0000
1.8062 -15.9019 -1.5012 9.0000
8.1592 -70.5666 -4.5053 6.0000
1.8533 -78.1472 -5.4633 3.0000
-4.4307 -64.5193 -4.8767 6.0000
-8.6393 -54.0305 -4.4127 10.0000
6.6868 -55.5493 -2.2251 14.0000
1.2840 -46.0471 -2.1439 38.0000
-4.2362 -64.3111 -3.3959 9.0000
-7.1189 -45.9654 -2.6634 22.0000
4.6894 -40.3321 -0.6826 6.0000
1.1474 -46.3738 -1.0494 6.0000
-2.4794 -36.4860 -1.0402 3.0000
-8.7026 -54.2437 -1.8825 9.0000
-2.6644 -17.1444 -3.1509 16.0000
-5.3472 -33.0838 -3.7689 5.0000
2.4177 -21.9495 1.2837 9.0000
2.4450 -21.7119 0.1336 17.0000
0.5667 -27.1540 0.0000 6.0000
-2.3695 -33.4054 -0.1944 31.0000
-8.8146 -54.2754 -0.5879 10.0000
2.5056 -21.4445 0.6272 22.0000
0.6432 -27.1848 0.6404 12.0000
-2.2646 -33.4978 0.6170 16.0000
-11.5674 -72.3303 0.8753 9.0000
0.0709 -0.6292 -0.2768 5.0000
1.1156 -9.4330 -2.4646 18.0000
1.6705 -15.1574 -2.1083 6.0000
1.7545 -15.9427 -1.5045 9.0000
8.9841 -80.1455 -5.1152 4.0000
1.7154 -84.8155 -5.9293 3.0000
-8.8230 -53.9705 -4.4103 10.0000
8.1844 -70.0372 -2.8047 6.0000
1.1246 -46.1062 -2.1465 15.0000
-7.3153 -46.1670 -2.6765 19.0000
2.6942 -23.9199 -0.4044 32.0000
0.9553 -44.9583 -1.0172 4.0000
-2.9222 -40.8891 -1.1661 9.0000
-8.8846 -54.1686 -1.8810 12.0000
-2.7226 -17.1253 -3.1491 15.0000
-5.4788 -33.1630 -3.7800 10.0000
2.3405 -21.9528 1.2834 40.0000
2.3583 -21.6209 0.1330 37.0000
-2.4694 -33.1726 -0.1931 18.0000
-8.9999 -54.2196 -0.5876 11.0000
2.4342 -21.4829 0.6281 19.0000
0.5481 -27.1768 0.6401 14.0000
-2.3890 -33.5944 0.6189 8.0000
-11.7762 -72.0230 0.8721 11.0000
0.0687 -0.6294 -0.2768 5.0000
1.0837 -9.4464 -2.4672 24.0000
1.6155 -15.1434 -2.1056 9.0000
1.7041 -15.9983 -1.5092 10.0000
6.7238 -61.9455 -3.9515 19.0000
-7.9678 -105.2538 -7.9615 4.0000
-9.0064 -53.9099 -4.4078 11.0000
6.3579 -56.1158 -2.2460 3.0000
0.9683 -46.3296 -2.1567 13.0000
-4.7526 -65.2062 -3.4449 7.0000
-8.7699 -54.1188 -3.1397 14.0000
2.5390 -23.2732 -0.3933 7.0000
0.7983 -44.9563 -1.0171 6.0000
-2.6009 -34.6935 -0.9895 3.0000
-9.0687 -54.1077 -1.8800 11.0000
-2.7824 -17.1157 -3.1491 12.0000
-5.6417 -33.4229 -3.8119 4.0000
2.2700 -22.0204 1.2869 37.0000
2.1030 -21.3496 2.6361 19.0000
2.3139 -21.9224 0.1348 12.0000
0.3849 -27.7122 0.0000 13.0000
-2.5945 -33.2834 -0.1938 18.0000
-9.1841 -54.1583 -0.5873 12.0000
2.3455 -21.3671 0.6244 21.0000
0.4683 -28.0782 0.6613 8.0000
-2.5017 -33.5261 0.6178 48.0000
-12.0383 -72.0456 0.8729 11.0000
0.0670 -0.6342 -0.2789 5.0000
1.0518 -9.4598 -2.4697 31.0000
1.5611 -15.1342 -2.1035 8.0000
1.6534 -16.0536 -1.5139 10.0000
7.9059 -75.2734 -4.8005 4.0000
1.1253 -84.9800 -5.9401 3.0000
-3.7342 -47.1530 -3.5660 15.0000
-9.1904 -53.8536 -4.4058 11.0000
6.8212 -62.1368 -2.4861 9.0000
0.8082 -46.4276 -2.1611 10.0000
-4.9623 -64.9552 -3.4325 10.0000
-8.9539 -54.0583 -3.1380 14.0000
2.4908 -23.5951 -0.3986 38.0000
0.7437 -52.1063 -1.1789 8.0000
-3.7256 -47.4647 -1.3545 15.0000
-9.2524 -54.0462 -1.8789 11.0000
-2.8421 -17.1059 -3.1491 12.0000
-7.3247 -42.4806 -4.8491 3.0000
2.2065 -22.1623 1.2948 26.0000
2.0256 -21.3272 2.6324 24.0000
2.2816 -22.3631 0.1375 27.0000
0.2876 -27.6584 0.0000 16.0000
-2.7082 -33.2442 -0.1936 18.0000
-9.3688 -54.1013 -0.5870 11.0000
2.2651 -21.3205 0.6228 17.0000
0.3583 -27.1750 0.6400 39.0000
-2.6153 -33.4723 0.6170 33.0000
-12.3115 -72.1313 0.8744 4.0000
0.0648 -0.6344 -0.2789 5.0000
1.0199 -9.4730 -2.4722 32.0000
1.5062 -15.1198 -2.1008 8.0000
1.6038 -16.1237 -1.5199 9.0000
0.8486 -87.0284 -6.0831 7.0000
-3.8922 -47.0601 -3.5600 37.0000
-9.3723 -53.7868 -4.4030 12.0000
6.5894 -62.0211 -2.4806 5.0000
-3.3904 -42.4356 -2.2424 9.0000
-9.1367 -53.9923 -3.1360 15.0000
0.3903 -36.2635 -0.8202 7.0000
-3.9763 -48.4875 -1.3841 6.0000
-9.4358 -53.9840 -1.8779 12.0000
-2.9010 -17.0910 -3.1482 12.0000
-7.4635 -42.4010 -4.8430 7.0000
2.1349 -22.2295 1.2982 17.0000
1.9602 -21.4330 2.6446 43.0000
2.2119 -22.4555 0.1380 7.0000
-2.8234 -33.2246 -0.1936 27.0000
-9.5524 -54.0387 -0.5867 12.0000
2.2065 -21.4824 0.6273 30.0000
0.2627 -27.1061 0.6384 33.0000
-2.7252 -33.3782 0.6154 41.0000
-13.0579 -74.9249 0.9088 6.0000
0.0626 -0.6346 -0.2789 5.0000
0.9878 -9.4861 -2.4747 33.0000
1.4520 -15.1102 -2.0987 7.0000
1.5546 -16.2035 -1.5270 6.0000
7.1625 -73.1069 -4.6589 10.0000
0.5507 -87.9585 -6.1480 5.0000
-9.5539 -53.7194 -4.4002 10.0000
6.3351 -61.6760 -2.4659 13.0000
-3.9354 -47.1804 -2.4940 33.0000
-9.3158 -53.9059 -3.1328 15.0000
2.3128 -23.4776 -0.3963 9.0000
0.2626 -36.1147 -0.8168 7.0000
-4.0083 -46.8698 -1.3383 14.0000
-9.6190 -53.9212 -1.8769 12.0000
-2.9598 -17.0759 -3.1473 12.0000
-7.5842 -42.2231 -4.8256 26.0000
2.0965 -22.6593 1.3230 13.0000
1.8980 -21.5831 2.6623 29.0000
2.1501 -22.6373 0.1391 17.0000
-2.9685 -33.5433 -0.1955 20.0000
-9.7365 -53.9804 -0.5864 12.0000
2.1439 -21.6143 0.6310 8.0000
0.1680 -27.0819 0.6378 23.0000
-3.1112 -36.5315 0.6738 16.0000
-13.6207 -76.5721 0.9294 10.0000
0.0604 -0.6348 -0.2789 4.0000
0.9556 -9.4992 -2.4772 31.0000
1.3979 -15.1004 -2.0967 7.0000
1.8554 -20.0603 -1.8907 6.0000
6.5856 -69.7285 -4.4420 6.0000
0.2410 -87.0022 -6.0810 7.0000
-6.3565 -70.8232 -5.3623 6.0000
-9.7351 -53.6514 -4.3974 11.0000
6.0585 -61.0812 -2.4412 8.0000
-3.1887 -36.6855 -1.9394 33.0000
-9.4995 -53.8485 -3.1314 13.0000
2.2559 -23.7493 -0.4008 10.0000
0.1364 -36.0854 -0.8161 5.0000
-3.0372 -34.1161 -0.9741 38.0000
-9.8026 -53.8627 -1.8760 12.0000
-3.0185 -17.0607 -3.1464 11.0000
-7.7378 -42.2306 -4.8295 15.0000
1.8353 -21.7379 2.6807 31.0000
2.0578 -22.5002 0.1382 22.0000
-0.0021 -27.8549 0.0000 3.0000
-3.0612 -33.2688 -0.1939 21.0000
-9.9195 -53.9166 -0.5861 10.0000
2.0899 -21.8455 0.6375 16.0000
0.0735 -27.1273 0.6388 17.0000
-3.2440 -36.5802 0.6749 18.0000
0.0581 -0.6351 -0.2789 3.0000
0.9229 -9.5073 -2.4785 31.0000
1.3439 -15.0904 -2.0946 7.0000
1.7849 -20.0617 -1.8902 3.0000
6.2246 -68.4590 -4.3597 5.0000
-9.9169 -53.5877 -4.3950 12.0000
5.8667 -61.3258 -2.4502 10.0000
0.2791 -80.5971 -3.7525 4.0000
-3.2735 -36.1968 -1.9141 32.0000
-9.6821 -53.7855 -3.1297 12.0000
0.0232 -72.6563 -1.6441 5.0000
-9.9851 -53.7987 -1.8750 10.0000
-3.0763 -17.0403 -3.1446 11.0000
-7.9126 -42.3498 -4.8463 4.0000
1.7594 -21.7442 2.6807 18.0000
1.9946 -22.6816 0.1392 16.0000
-0.1783 -50.4846 0.0000 5.0000
-3.1954 -33.4471 -0.1950 13.0000
-10.1021 -53.8522 -0.5858 10.0000
2.0504 -22.2508 0.6492 16.0000
-0.0237 -30.7214 0.7236 3.0000
-3.5833 -38.8635 0.7173 14.0000
0.0555 -0.6307 -0.2768 4.0000
0.8902 -9.5152 -2.4798 34.0000
1.2895 -15.0752 -2.0919 7.0000
6.0043 -68.6940 -4.3733 9.0000
-0.1519 -35.7823 -2.4994 21.0000
-5.0644 -52.3261 -3.9636 2.0000
-10.0983 -53.5234 -4.3926 8.0000
5.6439 -61.2514 -2.4464 9.0000
-0.0022 -81.0920 -3.7755 6.0000
-3.3989 -36.1752 -1.9136 28.0000
-9.8644 -53.7220 -3.1280 13.0000
-0.1117 -34.8808 -0.7888 39.0000
-3.4933 -36.3627 -1.0390 39.0000
-10.1691 -53.7439 -1.8743 11.0000
-3.1349 -17.0247 -3.1437 11.0000
-8.0250 -42.1365 -4.8250 37.0000
1.8599 -22.6900 1.3235 26.0000
1.9057 -22.5738 0.1385 20.0000
-0.3547 -50.5137 0.0000 5.0000
-3.4985 -35.3165 -0.2060 16.0000
-10.2844 -53.7871 -0.5855 11.0000
2.0347 -22.9548 0.6695 9.0000
-0.1203 -28.1818 0.6637 11.0000
-4.2693 -44.5985 0.8235 7.0000
0.0533 -0.6309 -0.2768 3.0000
0.8570 -9.5183 -2.4798 30.0000
1.2356 -15.0648 -2.0898 8.0000
1.5285 -18.6597 -1.7568 2.0000
3.3377 -39.8146 -2.5329 18.0000
-0.2771 -35.8265 -2.5025 49.0000
-5.2331 -52.1692 -3.9531 41.0000
-10.2804 -53.4633 -4.3906 12.0000
2.0260 -22.9019 -0.9134 12.0000
-0.2963 -84.2531 -3.9228 7.0000
-3.5538 -36.4563 -1.9291 14.0000
-10.0473 -53.6627 -3.1265 12.0000
1.9215 -22.7604 -0.3837 42.0000
-0.2366 -35.3601 -0.7997 15.0000
-3.6217 -36.3652 -1.0394 29.0000
-10.3519 -53.6835 -1.8735 10.0000
-3.1925 -17.0039 -3.1419 11.0000
-8.1749 -42.1228 -4.8267 73.0000
1.7897 -22.8108 1.3302 24.0000
1.6262 -22.0083 2.7118 19.0000
-0.6259 -59.5666 0.0000 3.0000
-4.0144 -39.1289 -0.2284 14.0000
-10.4673 -53.7264 -0.5852 12.0000
1.9609 -23.0365 0.6717 10.0000
-0.2193 -28.2712 0.6658 14.0000
-3.9454 -39.7529 0.7342 11.0000
-10.5815 -55.0275 0.6695 2.0000
0.0511 -0.6311 -0.2768 3.0000
0.8233 -9.5164 -2.4785 27.0000
1.1819 -15.0543 -2.0877 8.0000
1.4618 -18.6450 -1.7549 3.0000
3.1967 -39.8012 -2.5313 28.0000
-0.5815 -51.8801 -3.6252 14.0000
-10.4621 -53.4026 -4.3885 12.0000
1.9388 -22.8242 -0.9100 46.0000
-0.2527 -35.8852 -1.6698 29.0000
-3.6940 -36.5729 -1.9359 12.0000
-10.2289 -53.5978 -3.1248 12.0000
1.8505 -22.8716 -0.3854 9.0000
-0.3570 -35.0541 -0.7928 31.0000
-3.7538 -36.4021 -1.0409 15.0000
-10.5345 -53.6226 -1.8726 10.0000
-3.2499 -16.9830 -3.1401 11.0000
-8.3363 -42.1671 -4.8351 8.0000
1.7315 -22.3722 0.1372 34.0000
-0.4997 -35.6364 0.0000 13.0000
-4.1646 -39.2439 -0.2291 20.0000
-10.6489 -53.6601 -0.5849 12.0000
1.8960 -23.2324 0.6772 22.0000
-0.3187 -28.3352 0.6674 8.0000
-4.0320 -39.2316 0.7248 20.0000
-10.7024 -54.6272 0.6651 36.0000
0.0485 -0.6268 -0.2747 3.0000
0.7901 -9.5192 -2.4785 27.0000
1.1278 -15.0385 -2.0850 7.0000
1.3945 -18.6202 -1.7521 4.0000
3.0658 -39.9166 -2.5380 3.0000
-0.7666 -52.1470 -3.6441 8.0000
-8.2555 -76.8833 -5.8315 8.0000
-10.6436 -53.3414 -4.3865 10.0000
1.8689 -22.9504 -0.9148 45.0000
-0.3780 -35.8890 -1.6700 48.0000
-5.0800 -48.5923 -2.5738 9.0000
-10.4112 -53.5373 -3.1234 13.0000
1.7815 -23.0175 -0.3878 19.0000
-0.4863 -35.5625 -0.8043 18.0000
-4.1762 -39.1569 -1.1201 18.0000
-10.7157 -53.5561 -1.8716 11.0000
-3.3073 -16.9619 -3.1383 12.0000
-8.5306 -42.3716 -4.8620 29.0000
2.3295 -32.5761 1.8997 12.0000
1.7240 -23.3305 0.1431 8.0000
-0.6283 -35.8744 0.0000 13.0000
-4.3120 -39.3236 -0.2297 32.0000
-10.8312 -53.5981 -0.5846 11.0000
1.8200 -23.3037 0.6791 9.0000
-0.4972 -33.7619 0.7954 23.0000
-4.1811 -39.3316 0.7270 10.0000
-11.1250 -55.7515 0.6792 15.0000
0.0463 -0.6269 -0.2747 3.0000
0.7565 -9.5171 -2.4772 25.0000
1.0743 -15.0276 -2.0829 7.0000
1.3338 -18.6846 -1.7577 2.0000
5.0965 -69.4779 -4.4183 7.0000
-8.5266 -76.8788 -5.8333 7.0000
-10.8248 -53.2795 -4.3845 12.0000
1.8008 -23.1112 -0.9210 11.0000
-0.7339 -52.4030 -2.4394 7.0000
-5.2448 -48.5296 -2.5714 8.0000
-10.5922 -53.4713 -3.1217 14.0000
1.7130 -23.1831 -0.3905 13.0000
-0.5826 -33.9362 -0.7676 15.0000
-4.3265 -39.2663 -1.1237 39.0000
-10.8976 -53.4938 -1.8707 12.0000
-3.3656 -16.9455 -3.1374 11.0000
-8.7613 -42.7455 -4.9084 24.0000
2.2233 -32.6936 1.9061 13.0000
1.5019 -23.6931 2.9177 28.0000
1.6534 -23.4910 0.1440 12.0000
-0.7510 -35.7520 0.0000 44.0000
-4.4616 -39.4176 -0.2303 9.0000
-11.0132 -53.5354 -0.5844 11.0000
1.7267 -23.1504 0.6745 21.0000
-0.6184 -33.9448 0.7997 20.0000
-4.7453 -43.2028 0.7989 13.0000
-11.3464 -55.8446 0.6808 16.0000
0.0441 -0.6271 -0.2747 3.0000
0.7233 -9.5197 -2.4772 23.0000
1.0208 -15.0164 -2.0809 7.0000
4.7593 -68.1413 -4.3321 7.0000
-10.2248 -89.3412 -6.7821 7.0000
-11.0056 -53.2170 -4.3825 12.0000
1.7209 -23.1273 -0.9214 8.0000
-0.9147 -52.2753 -2.4336 11.0000
-5.0335 -45.1020 -2.3906 8.0000
-10.7738 -53.4095 -3.1202 14.0000
1.6180 -22.9894 -0.3871 22.0000
-0.6999 -33.8790 -0.7663 25.0000
-4.4839 -39.4297 -1.1288 30.0000
-11.0781 -53.4261 -1.8697 10.0000
-3.4227 -16.9240 -3.1356 11.0000
-9.9683 -47.7828 -5.4913 3.0000
2.1140 -32.7759 1.9104 13.0000
1.4248 -23.7924 2.9293 17.0000
1.5513 -23.1973 0.1422 22.0000
-0.8693 -35.4843 0.0000 16.0000
-11.1949 -53.4722 -0.5841 10.0000
1.6732 -23.5402 0.6857 5.0000
-0.7322 -33.7226 0.7946 35.0000
-4.7716 -42.0882 0.7786 7.0000
-11.3924 -55.0849 0.6721 6.0000
0.0419 -0.6272 -0.2747 3.0000
0.6900 -9.5221 -2.4772 23.0000
0.9674 -15.0050 -2.0788 8.0000
1.8779 -29.1255 -2.7408 2.0000
4.8587 -73.2360 -4.6551 5.0000
-11.1862 -53.1538 -4.3805 10.0000
-1.7520 -83.5360 -3.8902 3.0000
-4.7985 -41.6764 -2.2097 15.0000
-10.9562 -53.3520 -3.1191 15.0000
1.5303 -22.8852 -0.3853 18.0000
-0.8124 -33.6365 -0.7609 36.0000
-4.6116 -39.3295 -1.1264 8.0000
-11.2594 -53.3627 -1.8688 11.0000
-3.4808 -16.9071 -3.1347 11.0000
-10.5407 -49.6577 -5.7112 35.0000
1.5696 -25.7531 1.5003 20.0000
1.3319 -23.6238 2.9079 21.0000
1.4688 -23.1776 0.1420 16.0000
-0.9892 -35.3411 0.0000 14.0000
-5.1583 -42.8901 -0.2508 13.0000
-11.3762 -53.4084 -0.5838 10.0000
2.0696 -30.6017 0.8915 12.0000
-0.8472 -33.6149 0.7921 27.0000
-4.6363 -39.6581 0.7339 15.0000
-11.5609 -54.9323 0.6707 2.0000
0.0391 -0.6184 -0.2705 3.0000
0.6571 -9.5293 -2.4785 26.0000
0.9144 -14.9984 -2.0774 7.0000
1.7747 -29.1071 -2.7384 4.0000
-2.5142 -87.7447 -6.1354 6.0000
-17.7472 -146.0274 -11.0964 4.0000
-11.3675 -53.0950 -4.3789 11.0000
4.6589 -68.9577 -2.7490 6.0000
-2.0485 -83.7291 -3.8995 4.0000
-4.9604 -41.7982 -2.2171 34.0000
-11.1372 -53.2890 -3.1177 14.0000
1.4527 -22.9253 -0.3859 15.0000
-0.9298 -33.6334 -0.7609 11.0000
-4.9011 -40.5734 -1.1625 8.0000
-11.4404 -53.2986 -1.8680 12.0000
-3.5378 -16.8852 -3.1330 12.0000
-10.7213 -49.6546 -5.7151 17.0000
1.4811 -25.7834 1.5017 14.0000
1.3836 -23.1128 0.1416 18.0000
-1.1099 -35.2524 0.0000 7.0000
-5.1334 -41.4627 -0.2426 11.0000
-11.5584 -53.3488 -0.5836 11.0000
-0.9623 -33.5318 0.7902 16.0000
-4.7723 -39.6218 0.7335 38.0000
0.0375 -0.6275 -0.2747 2.0000
0.6239 -9.5316 -2.4785 24.0000
0.8612 -14.9867 -2.0754 7.0000
1.7288 -29.1947 -1.8534 48.0000
-1.9344 -60.1520 -4.2056 10.0000
-17.3285 -138.5437 -10.5321 4.0000
-11.5475 -53.0306 -4.3769 11.0000
4.3357 -67.6872 -2.6977 3.0000
-1.6403 -58.6434 -2.7309 4.0000
-5.1463 -42.1078 -2.2345 15.0000
-11.3180 -53.2254 -3.1162 13.0000
1.3693 -22.8754 -0.3849 38.0000
-1.0458 -33.5850 -0.7599 20.0000
-5.0785 -40.8438 -1.1708 5.0000
-11.6221 -53.2388 -1.8673 11.0000
-3.5946 -16.8631 -3.1312 12.0000
-10.4404 -47.5496 -5.4768 7.0000
1.1635 -23.5631 2.8994 11.0000
1.6056 -28.4638 0.1744 8.0000
-1.2382 -35.3983 0.0000 15.0000
-5.2169 -40.9634 -0.2398 36.0000
-11.7391 -53.2837 -0.5833 11.0000
1.9627 -32.3714 0.9427 5.0000
-1.0756 -33.4133 0.7875 24.0000
-4.9382 -39.8282 0.7376 37.0000
0.0333 -0.5960 -0.2599 3.0000
0.5906 -9.5337 -2.4785 24.0000
0.8081 -14.9748 -2.0733 8.0000
1.0643 -19.7538 -1.8565 17.0000
-3.1953 -89.6490 -6.2701 3.0000
-17.8368 -138.6752 -10.5467 3.0000
-11.7282 -52.9705 -4.3753 11.0000
1.7595 -29.1134 -1.1592 50.0000
-1.8453 -58.6473 -2.7314 2.0000
-5.2901 -42.0648 -2.2331 3.0000
-11.4995 -53.1660 -3.1151 14.0000
1.2915 -22.9150 -0.3855 26.0000
-1.1636 -33.5962 -0.7602 11.0000
-6.0639 -47.4144 -1.3599 11.0000
-11.8024 -53.1735 -1.8664 12.0000
-3.6514 -16.8409 -3.1294 10.0000
-10.6041 -47.5031 -5.4757 13.0000
1.3124 -26.0174 1.5148 16.0000
1.0799 -23.5373 2.8957 32.0000
1.2578 -23.7909 0.1457 12.0000
-1.3610 -35.3737 0.0000 4.0000
-11.9207 -53.2229 -0.5831 10.0000
1.8500 -32.3830 0.9428 17.0000
-1.1956 -33.5043 0.7897 24.0000
-5.1329 -40.2471 0.7457 25.0000
-12.1906 -55.0572 0.6737 6.0000
0.0337 -0.6368 -0.2789 2.0000
0.5576 -9.5405 -2.4798 25.0000
0.7553 -14.9676 -2.0720 7.0000
1.0013 -19.8768 -1.8678 5.0000
-2.2872 -58.4225 -4.0856 14.0000
-18.3286 -138.6714 -10.5513 4.0000
-11.9086 -52.9098 -4.3737 12.0000
1.6667 -29.2740 -1.1653 28.0000
-2.0542 -58.7603 -2.7370 15.0000
-6.0108 -46.4829 -2.4690 4.0000
-11.6796 -53.1012 -3.1137 13.0000
-1.2767 -33.4820 -0.7577 18.0000
-6.0313 -45.8865 -1.3167 8.0000
-11.9825 -53.1077 -1.8656 11.0000
-3.7080 -16.8184 -3.1276 10.0000
-10.7655 -47.4465 -5.4734 12.0000
1.2204 -25.9969 1.5134 12.0000
0.9941 -23.4566 2.8853 25.0000
1.4509 -29.3632 0.1799 10.0000
-1.4782 -35.2189 0.0000 16.0000
-5.5200 -41.0548 -0.2405 21.0000
-12.1008 -53.1566 -0.5829 11.0000
1.4941 -27.8777 0.8113 14.0000
-1.3208 -33.7097 0.7947 10.0000
-5.2630 -40.1496 0.7443 34.0000
0.0334 -0.6686 -0.2937 3.0000
0.5243 -9.5424 -2.4798 23.0000
0.7023 -14.9553 -2.0699 7.0000
0.8665 -18.4928 -1.7372 2.0000
-2.4886 -58.3544 -4.0815 21.0000
-7.1753 -52.8737 -4.0231 7.0000
-12.0888 -52.8485 -4.3720 9.0000
-2.2600 -58.7727 -2.7379 4.0000
-6.0099 -45.2341 -2.4037 24.0000
-11.8606 -53.0406 -3.1125 14.0000
1.1476 -23.2480 -0.3910 9.0000
-6.2383 -46.2119 -1.3266 14.0000
-12.1633 -53.0460 -1.8649 12.0000
-3.7646 -16.7958 -3.1258 12.0000
-10.9310 -47.4086 -5.4734 10.0000
1.5011 -34.5085 2.0093 8.0000
0.9074 -23.3360 2.8700 30.0000
1.2149 -26.4712 0.1621 11.0000
-1.6009 -35.2085 0.0000 17.0000
-5.6633 -41.0353 -0.2405 17.0000
-12.2818 -53.0945 -0.5826 12.0000
1.4013 -27.9726 0.8140 19.0000
-1.4391 -33.7198 0.7950 23.0000
