# .PCD v0.7 - Point Cloud Data file format
VERSION 0.7
FIELDS x y z intensity
SIZE 4 4 4 4
TYPE F F F F
COUNT 1 1 1 1
WIDTH 1509
HEIGHT 1
VIEWPOINT 0 0 0 1 0 0 0
POINTS 1509
DATA ascii
8.5199 -5.6720 0.2967 70.0000
29.2125 -23.6081 0.8849 16.0000
24.2587 -23.5639 0.6215 11.0000
23.7925 -27.7417 0.4365 31.0000
3.3994 -2.2427 -1.8807 8.0000
6.4071 -4.2510 -1.9931 34.0000
8.8996 -6.0073 -1.4829 41.0000
13.9541 -9.4189 -1.5794 4.0000
4.0174 -3.9359 -0.4213 7.0000
3.8549 -4.5198 -0.4762 7.0000
16.5319 -11.0033 -0.7887 55.0000
29.1550 -23.5279 -1.7433 14.0000
58.3312 -57.1000 -2.3231 9.0000
27.8063 -32.6873 -1.4702 14.0000
3.7213 -4.3263 -1.0315 7.0000
22.4775 -26.4965 1.4031 10.0000
21.9307 -25.9250 2.7688 15.0000
8.4013 -5.7719 1.2499 48.0000
9.0931 -10.6314 2.5435 8.0000
7.9293 -5.4969 2.5836 22.0000
29.6627 -20.0599 0.2191 8.0000
27.7175 -27.2928 -0.2259 12.0000
28.4206 -33.5401 -0.4699 8.0000
29.8123 -24.2652 0.9056 16.0000
24.1155 -23.5890 0.6199 13.0000
23.9289 -28.0987 0.4408 15.0000
3.3916 -2.2546 -1.8807 10.0000
6.4003 -4.2788 -1.9957 42.0000
8.8867 -6.0439 -1.4843 43.0000
13.9418 -9.4815 -1.5817 5.0000
4.6433 -3.8085 -0.4171 14.0000
4.0071 -3.9534 -0.4217 7.0000
3.8584 -4.5561 -0.4786 9.0000
16.4601 -11.0386 -0.7872 64.0000
29.5882 -24.0485 -1.7742 13.0000
13.0707 -12.8289 -0.9635 36.0000
12.6445 -14.8024 -1.1134 3.0000
27.9970 -22.9017 -0.8180 29.0000
58.3273 -57.4963 -2.3309 8.0000
27.9499 -33.0896 -1.4840 10.0000
3.7189 -4.3542 -1.0351 7.0000
3.5635 -4.2222 -0.6176 2.0000
21.8507 -25.9404 1.3695 59.0000
21.2985 -25.3564 2.7001 10.0000
12.3342 -14.5260 3.4672 10.0000
7.8547 -5.4859 2.5655 31.0000
29.6256 -20.1858 0.2194 10.0000
28.4253 -23.4347 0.0000 37.0000
28.0694 -27.8330 -0.2295 9.0000
23.4790 -27.9038 -0.3898 7.0000
30.0209 -20.2717 1.0531 24.0000
29.5032 -24.1854 0.8988 13.0000
24.0687 -23.7081 0.6208 9.0000
24.0954 -28.4951 0.4457 18.0000
3.3875 -2.2689 -1.8828 11.0000
6.3934 -4.3065 -1.9982 43.0000
8.8778 -6.0832 -1.4863 40.0000
13.8922 -9.5189 -1.5799 8.0000
14.1893 -9.6861 -1.0877 6.0000
4.6299 -3.8247 -0.4171 6.0000
4.0004 -3.9743 -0.4225 8.0000
3.8745 -4.6077 -0.4827 8.0000
16.4050 -11.0848 -0.7864 73.0000
12.5670 -14.8159 -1.1111 13.0000
28.3328 -19.3053 -0.5762 7.0000
27.9477 -23.0247 -0.8189 32.0000
58.5306 -58.1009 -2.3472 8.0000
23.1948 -27.6539 -1.2363 42.0000
3.7164 -4.3822 -1.0386 6.0000
3.5456 -4.2308 -0.6170 2.0000
21.6671 -25.9054 1.3637 41.0000
21.3439 -25.5914 2.7172 14.0000
13.6055 -9.4838 2.0368 36.0000
12.3057 -14.5952 3.4735 13.0000
7.9026 -5.5605 2.5875 18.0000
28.4741 -23.6423 0.0000 14.0000
24.2714 -24.2352 -0.1991 30.0000
23.2276 -27.8014 -0.3872 36.0000
29.3685 -24.2468 0.8972 8.0000
24.2803 -24.0842 0.6285 14.0000
23.0893 -27.4991 0.4288 31.0000
3.3833 -2.2833 -1.8849 10.0000
6.3783 -4.3288 -1.9982 43.0000
8.8851 -6.1339 -1.4911 40.0000
13.8752 -9.5786 -1.5817 8.0000
4.5859 -3.8153 -0.4144 6.0000
3.9971 -3.9989 -0.4236 7.0000
3.8648 -4.6288 -0.4835 16.0000
16.3372 -11.1224 -0.7850 69.0000
28.7259 -23.6826 -1.7324 20.0000
29.1350 -20.0009 -0.5940 12.0000
27.7056 -22.9880 -0.8142 22.0000
56.4081 -56.3862 -2.2699 15.0000
23.0949 -27.7309 -1.2362 38.0000
3.7169 -4.4140 -1.0431 8.0000
3.5339 -4.2469 -0.6176 2.0000
21.6563 -26.0770 1.3687 26.0000
23.7110 -28.6330 3.0316 8.0000
13.6536 -9.5882 2.0490 31.0000
8.9687 -10.7109 2.5399 19.0000
7.5679 -5.3648 2.4837 31.0000
29.7801 -20.5969 0.2216 7.0000
24.4299 -24.5644 -0.2011 3.0000
22.9963 -27.7206 -0.3849 28.0000
29.7673 -20.4045 1.0492 16.0000
28.8839 -24.0168 0.8850 13.0000
23.7222 -23.6954 0.6161 15.0000
24.4752 -29.3578 0.4565 6.0000
3.3790 -2.2976 -1.8870 11.0000
6.3631 -4.3510 -1.9982 35.0000
8.8718 -6.1705 -1.4925 40.0000
13.9276 -9.6867 -1.5916 12.0000
16.4392 -11.3899 -1.2666 50.0000
4.5458 -3.8088 -0.4119 6.0000
3.9901 -4.0199 -0.4244 6.0000
3.8613 -4.6576 -0.4851 5.0000
16.3189 -11.1935 -0.7860 66.0000
23.0820 -27.6078 -2.0600 16.0000
28.8471 -19.9518 -0.5895 6.0000
28.2044 -23.5686 -0.8313 15.0000
56.0560 -56.4267 -2.2636 13.0000
23.0393 -27.8614 -1.2384 36.0000
3.7046 -4.4307 -1.0440 8.0000
3.5128 -4.2516 -0.6165 3.0000
23.3002 -28.2572 1.4790 10.0000
23.1141 -28.1112 2.9678 9.0000
13.5268 -9.5700 2.0349 11.0000
8.8715 -10.6703 2.5228 18.0000
7.5452 -5.3884 2.4824 48.0000
29.2567 -20.3863 0.2182 12.0000
28.4958 -23.9984 0.0000 12.0000
23.8135 -24.1124 -0.1967 10.0000
22.8867 -27.7853 -0.3847 28.0000
29.5067 -20.3777 1.0425 4.0000
28.9340 -24.2298 0.8891 12.0000
23.5160 -23.6539 0.6129 37.0000
24.6308 -29.7550 0.4614 6.0000
3.3747 -2.3119 -1.8891 9.0000
6.3479 -4.3732 -1.9982 32.0000
13.8651 -9.7152 -1.5883 14.0000
16.3953 -11.4444 -1.2663 50.0000
4.5019 -3.7990 -0.4091 7.0000
3.9865 -4.0444 -0.4255 7.0000
3.8577 -4.6865 -0.4867 4.0000
28.9415 -19.9949 -1.3984 8.0000
13.0238 -13.1449 -0.9735 2.0000
22.9728 -27.6728 -2.0589 51.0000
28.9413 -20.1667 -0.5929 10.0000
28.0264 -23.5864 -0.8284 10.0000
56.0798 -56.8462 -2.2726 7.0000
26.8669 -32.7234 -1.4505 21.0000
3.7080 -4.4663 -1.0494 6.0000
3.5199 -4.2907 -0.6204 3.0000
21.4010 -26.1386 1.3641 13.0000
11.9643 -14.4956 3.4197 17.0000
7.4989 -5.3950 2.4733 50.0000
29.2058 -20.5027 0.2184 14.0000
24.9790 -25.4698 -0.2071 11.0000
22.8086 -27.8882 -0.3850 18.0000
29.4395 -20.4834 1.0426 6.0000
23.7423 -24.0489 0.6210 17.0000
3.3704 -2.3263 -1.8912 6.0000
6.3366 -4.3981 -1.9994 35.0000
13.8311 -9.7636 -1.5883 14.0000
16.3919 -11.5273 -1.2691 7.0000
4.4582 -3.7888 -0.4063 6.0000
3.9794 -4.0655 -0.4262 7.0000
3.8350 -4.6922 -0.4859 4.0000
29.4047 -24.7639 -1.7889 9.0000
12.9673 -13.1797 -0.9727 12.0000
22.9300 -27.8183 -2.0638 17.0000
29.0958 -20.4255 -0.5975 16.0000
55.8530 -57.0131 -2.2714 8.0000
26.4053 -32.3909 -1.4317 23.0000
3.7799 -4.5856 -1.0745 6.0000
3.5206 -4.3223 -0.6232 3.0000
24.1894 -29.7568 1.5487 5.0000
24.1221 -29.7586 3.1240 7.0000
8.5038 -10.3743 2.4385 4.0000
7.4996 -5.4353 2.4798 44.0000
29.1096 -20.5872 0.2182 9.0000
28.2477 -24.1285 0.0000 13.0000
26.1178 -26.8177 -0.2173 4.0000
29.5847 -20.7380 1.0503 6.0000
28.4784 -24.1886 0.8803 21.0000
23.4378 -23.9068 0.6152 18.0000
24.4825 -29.9998 0.4625 10.0000
3.3622 -2.3380 -1.8912 9.0000
6.3252 -4.4229 -2.0007 34.0000
9.5859 -6.8166 -1.6250 28.0000
16.4656 -11.6652 -1.2780 2.0000
4.4147 -3.7784 -0.4035 6.0000
3.9756 -4.0900 -0.4274 6.0000
29.1314 -24.7081 -1.7775 11.0000
14.0552 -14.3856 -1.0583 13.0000
26.3636 -32.2136 -2.3833 33.0000
29.2366 -20.6771 -0.6019 21.0000
27.7013 -23.6452 -0.8237 13.0000
24.4730 -25.1551 -0.9982 37.0000
26.1663 -32.3275 -1.4248 17.0000
3.5117 -4.3423 -0.6243 3.0000
23.6180 -29.2617 1.5186 11.0000
23.9681 -29.7805 3.1175 10.0000
12.7220 -9.2023 1.9280 43.0000
7.4923 -5.4699 2.4837 54.0000
29.2697 -20.8540 0.2199 13.0000
23.5944 -24.3964 -0.1970 15.0000
26.3910 -32.7335 -0.4495 9.0000
67.6432 -47.7596 2.4087 7.0000
27.6759 -23.6738 0.8580 7.0000
23.6889 -24.3323 0.6240 11.0000
3.3578 -2.3523 -1.8933 5.0000
6.3414 -4.4673 -2.0108 38.0000
9.5902 -6.8702 -1.6298 29.0000
4.3750 -3.7710 -0.4011 9.0000
3.9717 -4.1147 -0.4285 6.0000
12.1420 -15.0879 -1.5598 41.0000
14.0014 -14.4310 -1.0580 11.0000
26.1692 -32.2047 -2.3759 30.0000
29.2416 -20.8341 -0.6035 8.0000
27.9295 -24.0090 -0.8330 9.0000
12.4883 -12.9252 -0.5106 4.0000
26.7231 -33.2523 -1.4615 10.0000
3.5183 -4.3816 -0.6282 3.0000
22.0382 -27.4998 1.4231 13.0000
21.3663 -26.7375 2.7908 18.0000
12.6979 -9.2525 1.9292 38.0000
7.5010 -9.2814 2.1686 42.0000
10.7769 -7.9230 3.5859 9.0000
27.4928 -23.8177 0.0000 15.0000
23.5680 -24.5399 -0.1975 10.0000
23.4996 -24.3070 0.6213 10.0000
22.1355 -27.5131 0.4217 16.0000
3.3495 -2.3640 -1.8933 7.0000
6.3257 -4.4894 -2.0108 41.0000
9.5421 -6.8863 -1.6257 29.0000
69.4199 -49.8902 -5.4224 3.0000
4.3467 -3.7732 -0.3997 9.0000
3.9642 -4.1357 -0.4292 6.0000
68.4810 -48.7281 -3.3433 6.0000
27.4019 -23.5723 -1.6819 18.0000
12.3921 -12.8616 -0.9395 31.0000
26.1005 -32.3503 -2.3799 25.0000
28.9372 -20.7699 -0.5987 10.0000
28.0231 -24.2601 -0.8383 44.0000
12.3704 -12.8930 -0.5076 24.0000
3.5154 -4.4094 -0.6305 3.0000
23.4784 -29.5080 1.5228 11.0000
21.9913 -27.7177 2.8852 18.0000
12.6975 -9.3203 1.9341 24.0000
7.4624 -9.2999 2.1668 52.0000
8.1021 -6.0017 2.7005 32.0000
63.6317 -46.0010 0.4808 7.0000
27.7900 -24.2455 0.0000 6.0000
12.3679 -12.9672 -0.1039 31.0000
27.1572 -34.1696 -0.4666 15.0000
66.6418 -47.7533 2.3848 5.0000
24.0413 -25.0417 0.6379 11.0000
22.0830 -27.6448 0.4226 59.0000
3.3450 -2.3783 -1.8954 9.0000
9.5941 -6.9749 -1.6388 27.0000
12.4289 -9.0370 -1.4413 42.0000
4.3185 -3.7752 -0.3983 10.0000
3.9600 -4.1604 -0.4304 8.0000
12.2284 -15.4144 -1.5847 52.0000
67.5186 -48.3993 -3.3045 8.0000
27.9348 -24.2008 -1.7198 12.0000
12.3506 -12.9084 -0.9398 29.0000
25.9937 -32.4490 -2.3805 29.0000
27.9345 -24.3545 -0.8382 12.0000
12.3529 -12.9650 -0.5088 16.0000
25.7426 -32.4940 -1.4202 20.0000
3.3468 -4.1769 -0.9670 16.0000
3.5431 -4.4763 -0.6383 3.0000
22.0500 -27.9117 1.4364 42.0000
21.4196 -27.1914 2.8225 15.0000
7.4483 -9.3490 2.1722 63.0000
7.3378 -5.4760 2.4512 103.0000
64.0811 -46.6673 0.4854 3.0000
12.3398 -13.0284 -0.1041 22.0000
26.9386 -34.1386 -0.4649 16.0000
66.4626 -47.9769 2.3844 9.0000
28.2998 -24.7252 0.8853 16.0000
12.4258 -13.0326 0.3306 11.0000
21.9987 -27.7374 0.4228 9.0000
3.3367 -2.3900 -1.8954 12.0000
5.1354 -3.7001 -1.6389 10.0000
9.5937 -7.0258 -1.6429 29.0000
12.3932 -9.0774 -1.4408 43.0000
12.4870 -9.1127 -0.9785 46.0000
4.2941 -3.7804 -0.3973 14.0000
3.9557 -4.1850 -0.4315 8.0000
12.2177 -15.5118 -1.5903 47.0000
67.3169 -48.6113 -3.3029 6.0000
27.7222 -24.1865 -1.7119 5.0000
12.3399 -12.9876 -0.9424 17.0000
26.0511 -32.7544 -2.3962 21.0000
27.6652 -24.2902 -0.8326 6.0000
12.3316 -13.0335 -0.5098 3.0000
25.6352 -32.5915 -1.4206 9.0000
3.3016 -4.1501 -0.9581 8.0000
3.5734 -4.5473 -0.6467 5.0000
22.2207 -28.3306 1.4540 29.0000
21.0606 -26.9284 2.7875 16.0000
7.3882 -9.3402 2.1641 21.0000
7.3997 -5.5624 2.4785 96.0000
12.3114 -13.0896 -0.1042 3.0000
21.7787 -27.7969 -0.3774 16.0000
68.2472 -49.6282 2.4547 8.0000
27.4402 -24.1437 0.8610 15.0000
12.3424 -13.0360 0.3295 26.0000
21.8709 -27.7748 0.4222 15.0000
3.3283 -2.4016 -1.8954 9.0000
5.0715 -3.6811 -1.6225 19.0000
9.5931 -7.0769 -1.6470 26.0000
12.3695 -9.1265 -1.4418 41.0000
12.4511 -9.1533 -0.9781 43.0000
4.2696 -3.7854 -0.3962 13.0000
3.9548 -4.2134 -0.4330 7.0000
12.1849 -15.5818 -1.5932 46.0000
14.4747 -12.7193 -0.8957 4.0000
23.9632 -30.3454 -2.2137 11.0000
12.4807 -9.1617 -0.2598 40.0000
28.0409 -24.7939 -0.8465 4.0000
21.7143 -27.8045 -1.2084 5.0000
3.2780 -4.1500 -0.9554 6.0000
3.5881 -4.5989 -0.6523 16.0000
22.0326 -28.2936 1.4481 16.0000
12.6274 -9.3849 0.9139 44.0000
12.8374 -9.6313 1.9708 7.0000
7.2917 -9.2846 2.1453 40.0000
7.2994 -5.5270 2.4512 48.0000
12.4984 -9.2419 0.0950 39.0000
28.4641 -25.3634 0.0000 20.0000
30.5429 -32.7051 -0.2599 5.0000
21.8104 -28.0386 -0.3796 17.0000
12.6125 -9.2450 0.4540 32.0000
27.2435 -24.1399 0.8575 17.0000
12.3174 -13.1008 0.3301 17.0000
21.7430 -27.8116 0.4216 13.0000
3.3199 -2.4132 -1.8954 7.0000
5.0039 -3.6589 -1.6049 15.0000
9.5842 -7.1222 -1.6497 26.0000
12.4271 -9.2026 -0.9788 37.0000
4.2415 -3.7870 -0.3948 7.0000
3.9536 -4.2417 -0.4345 7.0000
12.1671 -15.6715 -1.5980 44.0000
12.4692 -9.1434 -0.6138 44.0000
14.3068 -12.6605 -0.8880 9.0000
12.4446 -9.2022 -0.2598 46.0000
27.5174 -24.5027 -0.8333 16.0000
23.8625 -25.5781 -0.9949 14.0000
25.0519 -32.3115 -1.4007 14.0000
3.2816 -4.1846 -0.9607 7.0000
3.5507 -4.5839 -0.6484 4.0000
21.6007 -27.9395 1.4261 16.0000
12.6066 -9.4379 0.9148 43.0000
22.3474 -28.9892 2.9849 9.0000
12.7245 -9.6163 1.9586 46.0000
7.2805 -9.3372 2.1515 43.0000
7.3069 -5.5730 2.4603 47.0000
12.4541 -9.2766 0.0949 41.0000
28.5206 -25.5928 0.0000 15.0000
23.7787 -25.6404 -0.2030 12.0000
21.7155 -28.1185 -0.3797 11.0000
12.5801 -9.2890 0.4540 45.0000
27.2673 -24.3314 0.8609 16.0000
23.5119 -25.1849 0.6331 7.0000
23.0189 -29.6569 0.4484 14.0000
3.3151 -2.4275 -1.8976 6.0000
4.9482 -3.6448 -1.5910 9.0000
4.2134 -3.7885 -0.3934 4.0000
3.9489 -4.2665 -0.4356 8.0000
12.1580 -15.7731 -1.6040 35.0000
12.4493 -9.1958 -0.6144 43.0000
14.1469 -12.6074 -0.8808 5.0000
24.2781 -31.1896 -2.2629 9.0000
12.4204 -9.2516 -0.2599 47.0000
57.1016 -51.2012 -1.7355 3.0000
23.8206 -25.7125 -0.9969 6.0000
21.8031 -28.3238 -1.2244 16.0000
3.2640 -4.1922 -0.9599 6.0000
3.5256 -4.5844 -0.6467 6.0000
21.6399 -28.1931 1.4352 25.0000
12.5895 -9.4938 0.9160 36.0000
20.7895 -27.1633 2.7892 30.0000
12.7304 -9.6907 1.9647 42.0000
7.2388 -9.3509 2.1488 30.0000
7.3028 -5.6102 2.4655 49.0000
12.3976 -9.3020 0.0947 42.0000
29.3585 -26.5303 0.0000 3.0000
23.6755 -25.7085 -0.2029 14.0000
21.7693 -28.3925 -0.3824 16.0000
12.5637 -9.3448 0.4545 43.0000
27.2417 -24.4799 0.8628 19.0000
23.4986 -25.3474 0.6352 12.0000
3.3066 -2.4390 -1.8976 6.0000
4.8966 -3.6332 -1.5784 10.0000
4.1743 -3.7798 -0.3910 4.0000
3.9475 -4.2949 -0.4371 7.0000
12.1513 -15.8788 -1.6105 22.0000
12.4332 -9.2511 -0.6152 42.0000
14.0582 -12.6166 -0.8780 6.0000
12.8485 -13.9069 -0.9961 2.0000
23.0124 -29.7770 -2.1545 15.0000
27.8428 -25.1431 -0.8485 13.0000
23.6664 -25.7257 -0.9942 14.0000
21.6889 -28.3798 -1.2235 15.0000
3.2734 -4.2347 -0.9670 22.0000
22.4314 -29.4368 1.4946 26.0000
12.3376 -9.3717 0.9000 35.0000
20.9840 -27.6166 2.8282 10.0000
12.7319 -9.7622 1.9702 4.0000
12.3611 -9.3422 0.0947 44.0000
28.9514 -26.3465 0.0000 10.0000
23.5114 -25.7098 -0.2023 13.0000
21.8547 -28.7110 -0.3856 11.0000
12.4190 -9.3047 0.4505 36.0000
26.0774 -23.5989 0.8285 29.0000
23.6605 -25.7015 0.6420 8.0000
21.6601 -28.3117 0.4257 29.0000
3.3017 -2.4533 -1.8997 9.0000
4.8451 -3.6214 -1.5658 9.0000
4.1316 -3.7674 -0.3882 4.0000
3.9459 -4.3234 -0.4386 8.0000
12.1500 -15.9926 -1.6177 14.0000
13.9362 -12.5953 -0.8732 7.0000
12.7999 -13.9517 -0.9961 5.0000
21.7264 -28.3164 -2.0432 17.0000
27.5071 -25.0148 -0.8409 7.0000
23.5528 -25.7823 -0.9932 16.0000
21.2605 -28.0214 -1.2048 25.0000
3.2945 -4.2930 -0.9778 17.0000
3.5145 -4.6367 -0.6506 7.0000
21.6595 -28.6304 1.4497 13.0000
12.2810 -9.3965 0.8982 39.0000
13.5363 -17.9414 1.8315 26.0000
8.1873 -10.7312 2.4538 45.0000
28.9699 -26.5488 0.0000 10.0000
24.8802 -27.3982 -0.2149 6.0000
21.4048 -28.3244 -0.3794 7.0000
12.3425 -9.3149 0.4489 45.0000
26.0910 -23.7773 0.8316 20.0000
23.6853 -25.9094 0.6451 14.0000
21.5037 -28.3115 0.4246 15.0000
3.2931 -2.4648 -1.8997 7.0000
4.7937 -3.6092 -1.5532 14.0000
4.8406 -3.7065 -0.8396 4.0000
30.5050 -23.2457 -2.4313 14.0000
4.1110 -3.7751 -0.3875 5.0000
3.9509 -4.3593 -0.4409 9.0000
30.9385 -23.3466 -1.5409 8.0000
13.8072 -12.5666 -0.8678 7.0000
12.7410 -13.9852 -0.9953 34.0000
21.6577 -28.4318 -2.0460 15.0000
30.2598 -23.0256 -0.6392 18.0000
27.1652 -24.8778 -0.8331 6.0000
24.6917 -27.2192 -1.0453 7.0000
21.6525 -28.7461 -1.2327 19.0000
3.3033 -4.3358 -0.9849 15.0000
3.5192 -4.6767 -0.6545 6.0000
20.7526 -27.6311 1.3954 30.0000
12.2481 -9.4394 0.8982 43.0000
13.4258 -17.9247 1.8250 36.0000
12.1228 -9.4306 1.8859 45.0000
8.1052 -10.7009 2.4403 14.0000
7.6502 -6.0052 2.6044 42.0000
30.3457 -23.2586 0.2340 13.0000
28.7631 -26.5446 0.0000 8.0000
23.6896 -26.2707 -0.2054 9.0000
12.3179 -9.3640 0.4492 50.0000
26.0189 -23.8783 0.8319 14.0000
23.4570 -25.8401 0.6413 22.0000
21.8863 -29.0252 0.4342 14.0000
3.2845 -2.4763 -1.8997 11.0000
4.7425 -3.5967 -1.5406 17.0000
19.5037 -15.0269 -2.3115 11.0000
30.4316 -23.3581 -2.4319 4.0000
4.0905 -3.7826 -0.3868 6.0000
3.9557 -4.3953 -0.4432 6.0000
21.3517 -28.5223 -2.8722 20.0000
30.8608 -23.4574 -1.5411 17.0000
13.6749 -12.5337 -0.8622 7.0000
12.7222 -14.0629 -0.9977 4.0000
22.9251 -30.3150 -2.1759 10.0000
29.9174 -22.9305 -0.6336 14.0000
28.2725 -26.0738 -0.8699 12.0000
23.5128 -26.1020 -0.9992 9.0000
21.4683 -28.7095 -1.2279 11.0000
3.3059 -4.3708 -0.9903 11.0000
3.5029 -4.6890 -0.6545 4.0000
20.8292 -27.9357 1.4071 15.0000
12.2427 -9.5035 0.9003 33.0000
13.4166 -18.0435 1.8323 10.0000
12.0937 -9.4759 1.8865 57.0000
10.3903 -13.8201 3.1452 11.0000
7.1479 -5.6518 2.4395 45.0000
25.4984 -23.6973 0.0000 12.0000
24.9785 -27.8953 -0.2174 8.0000
21.4573 -28.8100 -0.3839 43.0000
12.2851 -9.4069 0.4492 41.0000
25.8216 -23.8638 0.8283 23.0000
24.0695 -26.7017 0.6606 34.0000
21.5812 -28.8292 0.4301 15.0000
3.2795 -2.4904 -1.9018 15.0000
4.6761 -3.5722 -1.5229 12.0000
4.7519 -3.6917 -0.8286 9.0000
19.4354 -15.0827 -2.3096 50.0000
30.8750 -23.8700 -2.4740 3.0000
4.0919 -3.8105 -0.3882 6.0000
3.9636 -4.4352 -0.4458 7.0000
23.1661 -31.1730 -3.1312 9.0000
13.5650 -12.5204 -0.8580 7.0000
12.7064 -14.1444 -1.0003 4.0000
21.3838 -28.4825 -2.0389 33.0000
29.7817 -22.9920 -0.6324 29.0000
55.9173 -51.9281 -1.7268 6.0000
23.4149 -26.1765 -0.9989 10.0000
21.4007 -28.8284 -1.2298 17.0000
14.2084 -19.1857 -2.6836 30.0000
21.6201 -29.2090 1.4675 13.0000
13.4778 -18.2586 1.8494 18.0000
12.0839 -9.5365 1.8901 41.0000
8.3509 -11.1870 2.5381 7.0000
7.1055 -5.6586 2.4317 29.0000
29.9813 -23.3134 0.2324 13.0000
28.1645 -26.3587 0.0000 5.0000
23.4159 -26.3345 -0.2046 16.0000
21.4874 -29.0616 -0.3863 14.0000
25.7052 -23.9232 0.8272 12.0000
23.3460 -26.0815 0.6433 18.0000
20.6694 -27.8128 0.4138 10.0000
3.2707 -2.5019 -1.9018 11.0000
4.6060 -3.5443 -1.5040 5.0000
4.6922 -3.6717 -0.8204 32.0000
19.4336 -15.1902 -2.3157 56.0000
30.6891 -23.8979 -2.4658 19.0000
4.1222 -3.8657 -0.3924 8.0000
3.9646 -4.4676 -0.4477 7.0000
49.4885 -67.0912 -6.7250 4.0000
65.2582 -50.3174 -3.2779 3.0000
13.4663 -12.5167 -0.8545 5.0000
12.6836 -14.2184 -1.0024 2.0000
23.7657 -31.8873 -2.2769 12.0000
28.2140 -26.3866 -0.8737 14.0000
23.2603 -26.1871 -0.9962 17.0000
21.3414 -28.9592 -1.2322 17.0000
3.3076 -4.4372 -1.0001 11.0000
14.2208 -19.3433 -2.6987 13.0000
20.5301 -27.9395 1.4000 12.0000
13.4405 -18.3418 1.8531 46.0000
12.2293 -9.7206 1.9182 38.0000
7.5566 -10.1962 2.3067 11.0000
7.1309 -5.7196 2.4473 6.0000
29.5375 -23.1343 0.2296 12.0000
28.2943 -26.6661 0.0000 33.0000
23.2676 -26.3524 -0.2041 18.0000
21.3592 -29.1002 -0.3858 12.0000
29.6023 -22.9859 1.0896 27.0000
23.6667 -26.6262 0.6547 28.0000
21.4536 -29.0798 0.4316 27.0000
3.2656 -2.5160 -1.9039 8.0000
4.5477 -3.5248 -1.4889 8.0000
4.6716 -3.6819 -0.8190 5.0000
19.4078 -15.2795 -2.3190 12.0000
4.1450 -3.9143 -0.3959 8.0000
3.9655 -4.5001 -0.4496 9.0000
21.2109 -28.9615 -2.8939 13.0000
13.3788 -12.5227 -0.8518 6.0000
12.7133 -14.3523 -1.0088 19.0000
21.3863 -28.9040 -2.0583 11.0000
29.5260 -23.1254 -0.6304 8.0000
28.0744 -26.4404 -0.8722 3.0000
28.0614 -31.8158 -1.2068 7.0000
21.0957 -28.8359 -1.2238 13.0000
14.2000 -19.4570 -2.7076 12.0000
20.2971 -27.8253 1.3907 17.0000
13.3969 -18.4168 1.8559 46.0000
12.2069 -9.7725 1.9201 36.0000
7.5064 -10.2027 2.3022 11.0000
7.1071 -5.7415 2.4460 46.0000
30.0063 -23.6708 0.2339 12.0000
28.3570 -26.9127 0.0000 4.0000
28.9764 -33.0505 -0.2552 5.0000
20.9837 -28.7987 -0.3808 13.0000
26.0101 -24.5480 0.8425 14.0000
24.0632 -27.2633 0.6683 12.0000
21.4199 -29.2473 0.4330 14.0000
3.2568 -2.5274 -1.9039 7.0000
4.5163 -3.5258 -1.4826 8.0000
4.6470 -3.6889 -0.8170 8.0000
72.3679 -57.1599 -5.8495 3.0000
4.1566 -3.9528 -0.3983 8.0000
3.9825 -4.5515 -0.4533 10.0000
30.5027 -23.8645 -1.5397 17.0000
13.2768 -12.5145 -0.8480 4.0000
12.6730 -14.4079 -1.0096 19.0000
21.2557 -28.9382 -2.0555 27.0000
29.4844 -23.2592 -0.6312 32.0000
28.0073 -26.5623 -0.8730 13.0000
27.9469 -31.9098 -1.2067 16.0000
22.5333 -31.0283 -1.3136 5.0000
14.1699 -19.5588 -2.7149 11.0000
19.8483 -27.4104 1.3665 24.0000
63.7931 -50.9325 4.7517 6.0000
13.3617 -18.5038 1.8600 49.0000
12.1998 -9.8369 1.9244 30.0000
7.5548 -10.3440 2.3282 9.0000
7.0871 -5.7662 2.4460 35.0000
29.4536 -23.4022 0.2302 14.0000
28.1653 -26.9182 0.0000 9.0000
24.0646 -27.6418 -0.2128 10.0000
23.4728 -32.4533 -0.4281 2.0000
29.2448 -23.0374 1.0823 17.0000
22.5082 -25.6816 0.6275 22.0000
3.2515 -2.5416 -1.9060 8.0000
4.4773 -3.5206 -1.4737 10.0000
4.5915 -3.6712 -0.8094 4.0000
4.7427 -3.7931 -0.5673 3.0000
30.4489 -24.2273 -2.4667 17.0000
4.1500 -3.9741 -0.3990 8.0000
4.0059 -4.6105 -0.4578 12.0000
28.8610 -39.9931 -3.9771 9.0000
30.4820 -24.0203 -1.5429 16.0000
13.1425 -12.4748 -0.8422 40.0000
21.2487 -29.1413 -2.0646 26.0000
55.4688 -52.9730 -1.7357 4.0000
27.9140 -32.0977 -1.2101 8.0000
22.3430 -30.9932 -1.3088 7.0000
14.1769 -19.7130 -2.7294 3.0000
19.7758 -27.5119 1.3681 32.0000
63.8133 -51.3144 4.7665 8.0000
12.8628 -10.4454 2.0349 15.0000
7.4927 -10.3345 2.3201 44.0000
7.0594 -5.7848 2.4434 47.0000
30.3478 -24.2857 0.2379 12.0000
19.0967 -18.3800 0.0000 4.0000
22.8301 -26.4092 -0.2027 16.0000
21.9833 -30.6179 -0.4029 10.0000
29.2739 -23.2263 1.0864 17.0000
26.1018 -24.9813 0.8511 32.0000
24.5450 -28.2038 0.6871 8.0000
20.7939 -28.8122 0.4244 21.0000
3.2498 -2.5585 -1.9102 8.0000
4.4346 -3.5122 -1.4637 7.0000
4.5362 -3.6530 -0.8019 14.0000
29.1179 -23.3351 -2.3654 9.0000
4.1433 -3.9955 -0.3997 7.0000
4.0288 -4.6698 -0.4623 14.0000
27.6301 -38.5701 -3.8258 11.0000
30.3275 -24.0706 -1.5393 11.0000
13.2036 -12.6207 -0.8490 49.0000
55.6186 -53.4886 -1.7462 3.0000
27.8345 -32.2328 -1.2115 12.0000
21.0630 -29.4332 -1.2398 8.0000
3.1388 -4.3354 -0.9670 7.0000
10.8007 -15.1274 -2.0883 44.0000
19.6245 -27.5035 1.3643 18.0000
63.6222 -51.5274 4.7657 8.0000
10.7743 -15.1407 1.5138 13.0000
12.8955 -10.5468 2.0459 31.0000
7.5370 -10.4724 2.3452 72.0000
7.1510 -5.9016 2.4824 111.0000
27.7828 -26.9263 0.0000 17.0000
23.4021 -27.2627 -0.2086 16.0000
22.9729 -32.2336 -0.4231 5.0000
29.2863 -23.4032 1.0899 16.0000
26.0144 -25.0723 0.8511 11.0000
22.5408 -26.0840 0.6335 13.0000
20.4167 -28.4985 0.4187 10.0000
3.2444 -2.5726 -1.9123 6.0000
4.3958 -3.5066 -1.4548 4.0000
4.5042 -3.6533 -0.7984 23.0000
4.6464 -3.7698 -0.5589 8.0000
29.2343 -23.5964 -2.3815 67.0000
4.1401 -4.0204 -0.4008 7.0000
4.0319 -4.7065 -0.4646 12.0000
13.2026 -12.7082 -0.8518 48.0000
12.6811 -14.7252 -1.0225 22.0000
21.6592 -30.1444 -2.1250 21.0000
29.8776 -24.0811 -0.6450 13.0000
58.8681 -57.0103 -1.8545 4.0000
27.7186 -32.3260 -1.2114 8.0000
10.8423 -15.2589 -0.6405 35.0000
3.1236 -4.3464 -0.9670 9.0000
10.7363 -15.1488 -2.0861 41.0000
10.7002 -15.1033 0.7467 46.0000
62.8578 -51.2728 4.7218 10.0000
10.6754 -15.1130 1.5073 38.0000
12.8969 -10.6232 2.0520 5.0000
7.7576 -10.8590 2.4260 50.0000
7.0040 -5.8216 2.4382 46.0000
23.7349 -27.8466 -0.2124 13.0000
10.7552 -15.1980 -0.1988 16.0000
29.2122 -23.5116 1.0902 17.0000
24.2587 -23.5442 0.7963 7.0000
24.0024 -27.9723 0.6774 8.0000
10.7486 -15.1104 0.2212 26.0000
3.2389 -2.5868 -1.9145 5.0000
4.3534 -3.4977 -1.4447 5.0000
4.5985 -3.7576 -0.5547 8.0000
29.7288 -24.1672 -2.4287 14.0000
4.1367 -4.0453 -0.4018 6.0000
4.0187 -4.7244 -0.4650 4.0000
10.7224 -15.1853 -1.4970 45.0000
13.1761 -12.7716 -0.8529 46.0000
12.6296 -14.7694 -1.0225 32.0000
21.6263 -30.3215 -2.1321 12.0000
28.1669 -22.8653 -0.6098 14.0000
58.6008 -57.1491 -1.8523 7.0000
27.6542 -32.4796 -1.2135 11.0000
10.8005 -15.3130 -0.6412 32.0000
3.1141 -4.3653 -0.9688 9.0000
10.6891 -15.1943 -2.0872 39.0000
10.6474 -15.1406 0.7467 68.0000
62.6823 -51.4950 4.7221 7.0000
10.5711 -15.0767 1.5000 40.0000
12.7604 -10.5859 2.0361 36.0000
7.7935 -10.9903 2.4493 35.0000
7.1985 -6.0257 2.5135 127.0000
28.7872 -23.5359 0.2276 14.0000
28.1220 -27.6383 0.0000 8.0000
23.6182 -27.9064 -0.2123 4.0000
10.6704 -15.1904 -0.1982 42.0000
29.5843 -23.9816 1.1072 14.0000
24.1227 -23.5764 0.7946 30.0000
24.3845 -28.6191 0.6910 20.0000
10.6871 -15.1356 0.2211 44.0000
3.2405 -2.6066 -1.9208 5.0000
4.3110 -3.4886 -1.4347 7.0000
4.5662 -3.7579 -0.5524 9.0000
28.8951 -23.6577 -2.3673 12.0000
4.1297 -4.0667 -0.4025 7.0000
3.9990 -4.7346 -0.4646 3.0000
10.6779 -15.2348 -1.4982 45.0000
13.1529 -12.8385 -0.8543 46.0000
10.7838 -15.2274 -1.0671 49.0000
27.9243 -22.8306 -0.6063 19.0000
58.7362 -57.6825 -1.8630 9.0000
27.3857 -32.3927 -1.2067 17.0000
10.7298 -15.3260 -0.6402 37.0000
3.1329 -4.4243 -0.9796 8.0000
10.6474 -15.2478 -2.0895 37.0000
62.5253 -51.7326 4.7238 10.0000
10.5469 -15.1545 1.5040 48.0000
12.6777 -10.5922 2.0288 33.0000
7.5853 -10.7761 2.3955 48.0000
7.3658 -6.2094 2.5797 98.0000
28.7203 -23.6489 0.2277 17.0000
24.9333 -24.6765 0.0000 33.0000
23.4467 -27.9006 -0.2116 33.0000
10.6231 -15.2357 -0.1983 40.0000
29.5740 -24.1447 1.1099 14.0000
23.9904 -23.6113 0.7929 38.0000
23.9163 -28.2689 0.6805 16.0000
10.6371 -15.1769 0.2211 49.0000
3.2067 -2.5979 -1.9060 4.0000
4.2725 -3.4822 -1.4258 7.0000
4.5223 -3.7484 -0.5486 7.0000
29.5863 -24.3964 -2.4309 7.0000
4.1261 -4.0916 -0.4035 7.0000
3.9536 -4.7141 -0.4612 5.0000
10.6446 -15.3007 -1.5011 37.0000
28.0419 -22.9024 -1.4393 25.0000
12.5391 -14.8724 -1.0235 14.0000
10.7305 -15.2649 -1.0671 63.0000
27.9062 -22.9788 -0.6076 16.0000
27.3418 -27.0411 -0.8697 14.0000
23.2366 -27.6800 -1.0279 20.0000
10.6962 -15.3921 -0.6414 34.0000
3.1049 -4.4321 -0.9778 8.0000
10.8268 -15.6793 0.7687 48.0000
63.5801 -53.1496 4.8238 10.0000
10.8797 -15.8029 1.5630 44.0000
12.6997 -10.7202 2.0410 10.0000
7.3144 -10.5034 2.3264 98.0000
7.6064 -6.4781 2.6758 7.0000
28.5733 -23.7716 0.2275 16.0000
24.4757 -24.4701 0.0000 11.0000
23.2700 -27.9766 -0.2113 16.0000
10.6395 -15.4252 -0.2001 44.0000
29.4205 -24.2687 1.1088 14.0000
23.9344 -23.7959 0.7950 16.0000
22.9995 -27.4659 0.6583 41.0000
10.7481 -15.5017 0.2251 46.0000
3.1970 -2.6170 -1.9081 4.0000
4.2249 -3.4792 -1.4157 8.0000
4.6978 -3.9324 -0.8437 14.0000
4.4651 -3.7393 -0.5439 13.0000
4.1194 -4.1266 -0.4049 11.0000
3.9233 -4.7264 -0.4605 6.0000
28.4960 -23.5146 -1.4687 26.0000
13.0710 -12.9786 -0.8562 14.0000
23.1092 -27.6948 -1.8996 34.0000
10.6503 -15.3149 -1.0668 50.0000
27.1798 -27.1544 -0.8690 3.0000
23.0515 -27.7434 -1.0259 32.0000
21.1982 -30.8459 -1.2821 14.0000
3.0998 -4.4596 -0.9813 9.0000
13.9703 -20.3862 -2.7781 7.0000
10.7664 -15.7147 0.7685 59.0000
62.6785 -52.7875 4.7700 9.0000
10.8413 -15.8715 1.5659 9.0000
12.5772 -10.6960 2.0276 5.0000
7.2395 -10.4775 2.3148 48.0000
7.1390 -6.1258 2.5187 52.0000
24.4352 -24.6093 0.0000 8.0000
22.8776 -27.7108 -0.2086 28.0000
19.3214 -28.2407 -0.3657 11.0000
29.2084 -24.2742 1.1041 20.0000
23.7446 -23.7809 0.7916 12.0000
21.9241 -26.3774 0.6303 10.0000
10.7393 -15.6111 0.2261 40.0000
0.4747 -0.3981 -0.2705 5.0000
4.1861 -3.4731 -1.4069 8.0000
4.6795 -3.9464 -0.8431 14.0000
4.4590 -3.7621 -0.5449 3.0000
4.6749 -3.9301 -0.3850 8.0000
4.1148 -4.1523 -0.4060 7.0000
27.7257 -23.0505 -1.4333 15.0000
22.9725 -27.7370 -1.8967 24.0000
21.2437 -30.7971 -2.1419 12.0000
28.2411 -23.6710 -0.6194 36.0000
56.3886 -56.7471 -1.8103 11.0000
22.9687 -27.8509 -1.0268 32.0000
19.1964 -28.1528 -1.1671 11.0000
3.0926 -4.4825 -0.9840 8.0000
13.9382 -20.4924 -2.7859 6.0000
10.7424 -15.7976 0.7707 6.0000
62.5129 -53.0221 4.7715 12.0000
18.6631 -27.5352 2.7123 11.0000
12.5775 -10.7721 2.0337 20.0000
7.2057 -10.5068 2.3157 46.0000
7.0043 -6.0528 2.4785 87.0000
28.2688 -23.8626 0.2264 10.0000
27.1753 -27.5604 0.0000 8.0000
22.8029 -27.8176 -0.2088 18.0000
19.1581 -28.2128 -0.3645 10.0000
29.0966 -24.3535 1.1031 27.0000
23.5101 -23.7110 0.7865 37.0000
21.8446 -26.4692 0.6307 4.0000
19.3055 -28.2812 0.4089 15.0000
0.4699 -0.3969 -0.2684 5.0000
4.1442 -3.4629 -1.3968 8.0000
4.6771 -3.9723 -0.8451 14.0000
4.6459 -3.9335 -0.3838 9.0000
4.1143 -4.1808 -0.4074 6.0000
3.8610 -4.7196 -0.4571 4.0000
23.3411 -34.4523 -3.3553 7.0000
27.8021 -23.2786 -1.4415 24.0000
22.8851 -27.8286 -1.8975 27.0000
19.2047 -28.0494 -1.9459 12.0000
28.3226 -23.9081 -0.6230 11.0000
56.3236 -57.0788 -1.8146 13.0000
22.9505 -28.0276 -1.0303 8.0000
21.1365 -31.2327 -1.2919 18.0000
3.0825 -4.5014 -0.9858 13.0000
13.9138 -20.6109 -2.7955 7.0000
62.2781 -53.1978 4.7677 12.0000
7.6879 -11.4228 1.1208 14.0000
6.8810 -5.9885 2.4421 91.0000
29.8883 -25.4085 0.2401 5.0000
24.9590 -25.4902 0.0000 6.0000
22.7310 -27.9280 -0.2091 21.0000
21.2245 -31.4930 -0.4059 17.0000
29.1911 -24.6063 1.1099 16.0000
23.8340 -24.2061 0.8002 15.0000
22.5886 -27.5661 0.6549 13.0000
19.2403 -28.3981 0.4096 8.0000
0.4650 -0.3956 -0.2662 5.0000
4.1061 -3.4556 -1.3880 7.0000
4.6782 -4.0015 -0.8479 14.0000
4.5903 -3.9141 -0.3803 7.0000
4.1136 -4.2094 -0.4088 7.0000
12.2882 -15.1341 -1.4679 20.0000
21.5913 -32.1097 -3.1196 57.0000
27.8926 -23.5204 -1.4504 15.0000
22.7815 -27.9006 -1.8970 3.0000
21.1123 -31.0686 -2.1504 16.0000
55.4873 -56.6252 -1.7940 10.0000
20.8658 -31.0656 -1.2819 14.0000
3.0833 -4.5366 -0.9912 9.0000
13.8832 -20.7213 -2.8038 8.0000
18.4053 -27.4841 1.3356 35.0000
115.6280 -99.4631 8.8802 5.0000
7.6259 -11.4164 1.1175 36.0000
7.1954 -10.6506 2.3363 95.0000
6.7729 -5.9362 2.4110 28.0000
28.0027 -23.9748 0.2256 16.0000
24.0297 -24.7133 0.0000 9.0000
22.6145 -27.9839 -0.2089 17.0000
28.1219 -23.8737 1.0724 16.0000
22.1956 -27.2803 0.6463 7.0000
19.6598 -29.2369 0.4208 19.0000
0.4775 -0.4089 -0.2747 5.0000
4.0645 -3.4449 -1.3779 7.0000
4.6717 -4.0242 -0.8492 15.0000
4.6647 -4.0196 -0.5753 33.0000
4.5198 -3.8814 -0.3755 7.0000
4.1128 -4.2381 -0.4102 7.0000
12.2759 -15.2274 -1.4728 40.0000
21.5012 -32.2181 -3.1228 35.0000
12.9980 -13.2763 -0.8636 6.0000
27.1897 -33.5381 -2.2742 14.0000
20.8865 -30.9682 -2.1384 37.0000
27.7296 -23.7411 -0.6136 9.0000
55.3730 -56.9045 -1.7968 9.0000
29.1866 -36.1559 -1.3219 5.0000
20.9955 -31.4959 -1.2967 4.0000
3.0647 -4.5432 -0.9903 17.0000
13.8493 -20.8276 -2.8117 10.0000
18.5055 -27.8436 1.3499 23.0000
58.7699 -50.9155 4.5261 17.0000
7.6575 -11.5509 1.1281 6.0000
11.5262 -10.0834 1.8804 48.0000
7.1692 -10.6920 2.3399 46.0000
28.3241 -24.4217 0.2289 13.0000
24.5060 -25.3797 0.0000 9.0000
22.3633 -27.8716 -0.2075 8.0000
18.3446 -27.6329 -0.3544 17.0000
27.8978 -23.8516 1.0670 16.0000
23.6157 -24.3217 0.7986 13.0000
22.3516 -27.6687 0.6537 10.0000
19.4911 -29.2055 0.4193 17.0000
0.4657 -0.4018 -0.2684 6.0000
4.0230 -3.4339 -1.3678 7.0000
4.6689 -4.0502 -0.8513 13.0000
4.4949 -3.8873 -0.3746 5.0000
4.1118 -4.2667 -0.4116 7.0000
12.2508 -15.3052 -1.4762 40.0000
28.8821 -24.7015 -1.5109 12.0000
26.2898 -32.6604 -2.2084 16.0000
20.9310 -31.2691 -2.1542 21.0000
27.5746 -23.7757 -0.6120 15.0000
24.3939 -25.2460 -0.7939 47.0000
26.6597 -33.2623 -1.2126 16.0000
18.6168 -28.1388 -1.1556 8.0000
13.8176 -20.9380 -2.8201 9.0000
18.1525 -27.5202 1.3312 45.0000
58.6746 -51.1925 4.5325 15.0000
7.6172 -11.5776 1.1281 4.0000
11.4909 -10.1236 1.8804 4.0000
7.1836 -10.7948 2.3569 54.0000
6.6988 -5.9545 2.3993 97.0000
27.4118 -23.8027 0.2222 15.0000
23.5590 -24.5701 0.0000 27.0000
26.1039 -32.7676 -0.2433 10.0000
19.5461 -29.6675 -0.3797 16.0000
27.5076 -23.6847 1.0553 11.0000
23.5064 -24.3788 0.7977 16.0000
23.6436 -29.4781 0.6945 17.0000
18.3760 -27.7435 0.3974 14.0000
0.4643 -0.4034 -0.2684 6.0000
3.9816 -3.4228 -1.3578 8.0000
4.6659 -4.0763 -0.8534 13.0000
4.6590 -4.0717 -0.5781 25.0000
4.4512 -3.8768 -0.3721 6.0000
4.1141 -4.2991 -0.4133 11.0000
12.2314 -15.3908 -1.4803 39.0000
22.2638 -33.8710 -3.2680 11.0000
27.5539 -23.7329 -1.4457 14.0000
12.8218 -13.2805 -0.8580 5.0000
26.0852 -32.6389 -2.2008 15.0000
20.8493 -31.3836 -2.1570 28.0000
27.7217 -24.0718 -0.6171 17.0000
12.4687 -12.9962 -0.4069 6.0000
18.2113 -27.7357 -1.1364 5.0000
13.7852 -21.0485 -2.8285 11.0000
17.9168 -27.3701 1.3209 34.0000
58.4768 -51.3805 4.5311 7.0000
10.5501 -16.1619 1.5724 16.0000
11.4778 -10.1834 1.8840 6.0000
6.5808 -5.8909 2.3642 46.0000
12.3978 -13.0220 0.0000 17.0000
25.9273 -32.7800 -0.2427 7.0000
18.1759 -27.7979 -0.3549 13.0000
27.4625 -23.8133 1.0567 11.0000
24.1056 -25.1755 0.8211 9.0000
21.9835 -27.6050 0.6485 14.0000
18.3093 -27.8534 0.3980 15.0000
0.4594 -0.4021 -0.2662 6.0000
3.9403 -3.4113 -1.3477 8.0000
4.6591 -4.0991 -0.8547 13.0000
4.6784 -4.1175 -0.5823 17.0000
4.4113 -3.8693 -0.3699 5.0000
4.1094 -4.3243 -0.4144 10.0000
12.2146 -15.4804 -1.4849 36.0000
23.1364 -35.4680 -3.4144 14.0000
28.9241 -25.0891 -1.5222 11.0000
12.3017 -12.8313 -0.8262 36.0000
25.9401 -32.6906 -2.1981 7.0000
22.9841 -34.8613 -2.3908 9.0000
27.7279 -24.2474 -0.6191 21.0000
12.3543 -12.9673 -0.4046 26.0000
25.6987 -32.5260 -1.1792 26.0000
18.0680 -27.7279 -1.1335 34.0000
13.7550 -21.1631 -2.8374 9.0000
17.9926 -27.6965 1.3336 25.0000
7.2924 -11.2540 1.0915 44.0000
7.2347 -11.0381 2.3991 28.0000
6.5638 -5.9171 2.3655 54.0000
12.3214 -13.0325 0.0000 18.0000
25.9486 -33.0434 -0.2440 9.0000
18.0624 -27.8360 -0.3546 17.0000
12.4299 -13.0742 0.4245 11.0000
21.9211 -27.7248 0.6495 43.0000
18.1600 -27.8376 0.3969 25.0000
0.4614 -0.4066 -0.2684 6.0000
3.8992 -3.3997 -1.3376 8.0000
4.6559 -4.1252 -0.8568 13.0000
4.6789 -4.1470 -0.5842 14.0000
4.3679 -3.8583 -0.3673 6.0000
4.1080 -4.3531 -0.4157 10.0000
12.2005 -15.5739 -1.4897 29.0000
19.2297 -29.7035 -2.8525 23.0000
28.6783 -25.0519 -1.5139 5.0000
12.3154 -12.9357 -0.8301 35.0000
20.8811 -31.9127 -2.1833 10.0000
29.9658 -26.3888 -0.6712 7.0000
12.3262 -13.0285 -0.4052 18.0000
25.3969 -32.3756 -1.1705 14.0000
19.2733 -29.8052 -1.2158 25.0000
6.5544 -10.0262 -2.1731 46.0000
13.7214 -21.2736 -2.8458 10.0000
17.9472 -27.8389 1.3374 35.0000
60.3714 -53.7964 4.7069 19.0000
7.2127 -11.2165 1.0854 31.0000
7.2122 -11.0880 2.4044 9.0000
6.6969 -6.0794 2.4213 112.0000
27.7484 -24.6092 0.2270 16.0000
12.3134 -13.1155 0.0000 13.0000
22.3870 -28.7134 -0.2114 7.0000
19.2803 -29.9421 -0.3806 15.0000
28.6544 -25.1990 1.1094 8.0000
12.3190 -13.0485 0.4223 24.0000
22.1946 -28.2730 0.6606 28.0000
18.0465 -27.8756 0.3966 6.0000
0.4600 -0.4083 -0.2684 6.0000
3.8582 -3.3878 -1.3275 8.0000
4.6489 -4.1480 -0.8582 12.0000
4.6793 -4.1765 -0.5861 10.0000
4.3245 -3.8470 -0.3648 6.0000
4.1303 -4.4074 -0.4196 9.0000
12.1889 -15.6715 -1.4950 25.0000
19.0612 -29.6698 -2.8428 67.0000
57.0767 -50.2039 -3.0236 2.0000
12.3182 -13.0294 -0.8334 18.0000
23.5487 -30.1060 -2.0131 9.0000
22.8761 -35.2303 -2.4051 15.0000
29.8398 -26.4634 -0.6704 3.0000
25.5281 -27.1688 -0.8432 6.0000
24.9367 -32.0185 -1.1544 10.0000
19.1260 -29.8050 -1.2130 34.0000
6.5381 -10.0779 -2.1794 43.0000
13.6819 -21.3758 -2.8531 11.0000
17.7880 -27.8046 1.3328 24.0000
60.3542 -54.1602 4.7203 13.0000
7.1869 -11.2626 1.0874 18.0000
7.1574 -11.0883 2.3991 15.0000
6.6328 -6.0637 2.4058 93.0000
27.4162 -24.4861 0.2249 11.0000
25.7439 -27.6099 0.0000 9.0000
21.6868 -28.0164 -0.2057 18.0000
18.9254 -29.6173 -0.3756 39.0000
29.2922 -25.9416 1.1376 13.0000
12.3110 -13.1315 0.4236 17.0000
21.7823 -27.9481 0.6512 16.0000
18.7461 -29.1794 0.4142 10.0000
0.4586 -0.4099 -0.2684 6.0000
3.8173 -3.3756 -1.3174 8.0000
4.6417 -4.1708 -0.8595 12.0000
4.2739 -3.8288 -0.3616 6.0000
4.1591 -4.4693 -0.4241 8.0000
12.1737 -15.7653 -1.4999 23.0000
18.9308 -29.6941 -2.8388 58.0000
27.5303 -24.3903 -1.4622 18.0000
23.6303 -30.4286 -2.0291 23.0000
19.1737 -29.7539 -2.0263 22.0000
27.2487 -24.3366 -0.6141 6.0000
54.3055 -58.1979 -1.8013 4.0000
21.6271 -27.9695 -1.0056 11.0000
6.5215 -10.1296 -2.1856 38.0000
13.6498 -21.4906 -2.8620 10.0000
59.9351 -54.1630 4.7023 12.0000
7.1289 -11.2582 1.0846 36.0000
11.0045 -10.0417 1.8291 43.0000
9.7570 -15.2356 3.2914 5.0000
6.5761 -6.0541 2.3928 47.0000
27.9254 -25.1165 0.2299 12.0000
24.1152 -26.0451 0.0000 8.0000
21.6437 -28.1633 -0.2062 11.0000
18.7764 -29.6114 -0.3747 18.0000
27.1049 -24.1745 1.0558 9.0000
23.5372 -25.2791 0.8136 14.0000
21.6173 -27.9370 0.6492 15.0000
18.3861 -28.8399 0.4085 14.0000
0.4606 -0.4145 -0.2705 5.0000
3.7766 -3.3632 -1.3073 7.0000
4.6345 -4.1936 -0.8609 12.0000
4.2419 -3.8270 -0.3600 6.0000
4.1706 -4.5131 -0.4269 6.0000
12.1672 -15.8710 -1.5059 18.0000
18.8616 -29.8148 -2.8440 42.0000
27.5233 -24.5561 -1.4664 14.0000
21.8076 -28.2846 -1.8809 6.0000
19.0321 -29.7617 -2.0223 40.0000
29.1748 -26.2399 -0.6596 4.0000
23.7647 -25.6487 -0.7908 41.0000
21.7575 -28.3421 -1.0163 16.0000
18.9281 -29.9547 -1.2137 16.0000
6.5311 -10.2228 -2.2009 36.0000
7.2768 -11.5411 -1.5317 45.0000
17.8384 -28.3170 1.3514 16.0000
26.5297 -24.1477 2.0869 31.0000
17.7279 -28.2289 2.7180 20.0000
11.0352 -10.1405 1.8400 41.0000
6.6399 -6.1558 2.4239 103.0000
28.4269 -25.7474 0.2347 9.0000
23.6146 -25.6838 0.0000 13.0000
21.9911 -28.8230 -0.2105 12.0000
23.4386 -25.3501 0.8133 15.0000
22.5856 -29.3998 0.6813 18.0000
18.7797 -29.6857 0.4195 8.0000
0.4557 -0.4130 -0.2684 5.0000
3.7396 -3.3538 -1.2985 8.0000
4.6272 -4.2164 -0.8623 16.0000
4.0094 -3.6558 -0.5065 3.0000
4.1694 -3.7882 -0.3550 5.0000
4.2054 -4.5827 -0.4321 7.0000
12.1479 -15.9610 -1.5104 2.0000
14.3540 -12.9006 -0.7665 3.0000
13.8677 -14.9790 -0.9490 5.0000
21.7300 -28.3883 -1.8828 10.0000
18.9361 -29.8406 -2.0231 43.0000
56.6359 -51.2900 -1.2850 9.0000
23.5972 -25.6469 -0.7882 10.0000
21.7554 -28.5451 -1.0208 6.0000
21.5862 -34.4282 -1.3921 14.0000
6.4954 -10.2455 -2.2009 38.0000
7.2286 -11.5538 -1.5300 72.0000
18.0095 -28.8113 1.3720 19.0000
25.8270 -23.6736 2.0381 12.0000
18.6727 -29.9656 2.8791 20.0000
9.0184 -14.3004 3.0753 12.0000
6.9221 -6.4621 2.5356 114.0000
28.2149 -25.7353 0.2337 18.0000
23.6631 -25.9174 0.0000 7.0000
21.7485 -28.7123 -0.2091 15.0000
18.0477 -28.9062 -0.3642 14.0000
26.7946 -24.2357 1.0503 33.0000
21.4945 -28.1826 0.6514 13.0000
18.0913 -28.8194 0.4064 15.0000
0.4543 -0.4146 -0.2684 5.0000
3.6991 -3.3409 -1.2884 8.0000
4.6088 -4.2292 -0.8616 18.0000
3.9819 -3.6563 -0.5046 6.0000
4.1635 -3.8094 -0.3556 7.0000
4.2297 -4.6416 -0.4363 5.0000
12.1913 -16.1346 -1.5229 3.0000
7.2567 -11.6440 -1.1041 57.0000
14.1644 -12.8199 -0.7587 7.0000
13.8221 -15.0347 -0.9495 4.0000
21.6489 -28.4878 -1.8843 14.0000
18.8797 -29.9826 -2.0283 35.0000
28.5032 -25.9983 -0.6485 11.0000
23.5514 -25.7771 -0.7896 18.0000
21.3179 -28.1745 -1.0049 22.0000
7.3042 -11.7339 -0.4726 30.0000
6.4727 -10.2890 -2.2053 41.0000
7.1856 -11.5747 -1.5295 76.0000
17.4928 -28.2031 1.3401 25.0000
25.6891 -23.7128 2.0337 8.0000
7.4979 -12.1207 1.1603 40.0000
10.8806 -10.1395 1.8260 43.0000
8.9919 -14.3693 3.0834 17.0000
7.2621 -6.8267 2.6693 104.0000
25.9447 -23.8317 0.2156 9.0000
23.3743 -25.7813 0.0000 13.0000
23.2046 -30.8581 -0.2242 7.0000
18.5627 -29.9637 -0.3767 15.0000
25.9782 -23.6629 1.0215 38.0000
23.4901 -25.7643 0.8213 19.0000
21.4654 -28.3491 0.6535 29.0000
18.0408 -28.9630 0.4075 24.0000
0.4528 -0.4162 -0.2684 4.0000
3.6659 -3.3343 -1.2809 9.0000
4.6013 -4.2520 -0.8630 17.0000
3.9472 -3.6499 -0.5018 5.0000
4.2670 -4.7155 -0.4419 6.0000
23.7659 -31.6849 -2.9855 3.0000
7.2161 -11.6692 -1.1041 72.0000
14.0088 -12.7683 -0.7528 6.0000
12.8232 -14.0464 -0.8841 5.0000
22.9175 -30.3769 -2.0041 12.0000
7.3109 -11.6950 -0.7881 70.0000
56.8620 -52.2218 -1.2984 5.0000
23.5385 -25.9443 -0.7922 10.0000
21.2464 -28.2847 -1.0061 25.0000
7.2448 -11.7295 -0.4714 51.0000
6.4523 -10.3365 -2.2107 43.0000
7.1530 -11.6125 -1.5311 68.0000
17.3707 -28.2257 1.3382 26.0000
26.3997 -24.5397 2.0968 31.0000
7.5103 -12.2360 1.1688 6.0000
10.8596 -10.1910 1.8284 17.0000
7.5048 -7.1042 2.7680 15.0000
25.7953 -23.8610 0.2150 5.0000
23.7224 -26.3495 0.0000 8.0000
21.3890 -28.6511 -0.2076 12.0000
7.2470 -11.7837 -0.1476 7.0000
25.9875 -23.8378 1.0252 28.0000
21.4985 -28.5997 0.6575 15.0000
18.2602 -29.5447 0.4148 12.0000
0.4514 -0.4178 -0.2684 4.0000
3.6292 -3.3242 -1.2720 16.0000
3.9089 -3.6399 -0.4985 4.0000
13.2058 -12.2364 -1.1399 15.0000
4.2872 -4.7711 -0.4457 4.0000
21.2731 -28.5684 -2.6846 23.0000
7.1857 -11.7113 -1.1057 66.0000
13.9126 -12.7699 -0.7500 6.0000
12.7539 -14.0689 -0.8827 5.0000
22.7664 -30.3967 -2.0002 12.0000
7.2490 -11.6865 -0.7859 88.0000
28.0898 -25.9828 -0.6432 43.0000
23.4076 -25.9817 -0.7909 25.0000
21.4941 -28.8235 -1.0227 11.0000
7.2116 -11.7675 -0.4719 57.0000
6.4421 -10.4008 -2.2197 45.0000
13.4720 -22.0520 -2.9051 5.0000
25.3298 -23.7108 2.0183 40.0000
7.6074 -12.4920 1.1908 18.0000
10.8600 -10.2629 1.8346 53.0000
7.1248 -11.5625 2.4690 71.0000
8.9346 -8.5155 3.3081 33.0000
25.4776 -23.7328 0.2131 18.0000
29.0559 -32.5003 0.0000 5.0000
21.4764 -28.9786 -0.2094 35.0000
7.1824 -11.7705 -0.1471 50.0000
25.9041 -23.9284 1.0252 21.0000
23.9547 -26.6451 0.8441 14.0000
21.6467 -29.0071 0.6652 17.0000
17.7520 -28.9476 0.4055 17.0000
0.4466 -0.4163 -0.2662 4.0000
3.5962 -3.3172 -1.2645 9.0000
3.7541 -3.5194 -0.7078 3.0000
3.8707 -3.6297 -0.4953 5.0000
13.1265 -12.2484 -1.1368 32.0000
4.2672 -4.7823 -0.4454 5.0000
23.1677 -31.3409 -2.9377 8.0000
13.7798 -12.7370 -0.7452 7.0000
12.7248 -14.1356 -0.8841 6.0000
21.2719 -28.6088 -1.8775 16.0000
7.2056 -11.7074 -0.7856 86.0000
23.3101 -26.0558 -0.7906 5.0000
21.3458 -28.8340 -1.0204 11.0000
7.1835 -11.8140 -0.4728 49.0000
6.4367 -10.4735 -2.2304 42.0000
13.4285 -22.1542 -2.9124 7.0000
17.4139 -28.7437 1.3570 17.0000
25.3995 -23.9429 2.0305 27.0000
6.7396 -11.1533 1.0606 46.0000
7.4767 -12.2296 2.6062 8.0000
9.3892 -9.0112 3.4886 2.0000
25.4566 -23.8798 0.2136 12.0000
28.9389 -32.5978 0.0000 4.0000
7.1335 -11.7827 -0.1469 59.0000
25.7216 -23.9268 1.0212 40.0000
23.2656 -26.0611 0.8230 12.0000
22.5898 -30.4925 0.6974 5.0000
18.2666 -30.0217 0.4197 8.0000
0.4484 -0.4209 -0.2684 4.0000
3.5633 -3.3100 -1.2569 8.0000
3.8653 -3.6501 -0.4962 7.0000
13.1455 -12.3522 -1.1422 13.0000
4.2439 -4.7897 -0.4447 6.0000
22.9992 -31.3411 -2.9302 9.0000
21.1918 -35.1060 -3.3062 47.0000
13.6768 -12.7306 -0.7420 5.0000
22.4202 -30.3742 -1.9883 11.0000
7.1854 -11.7666 -0.7879 54.0000
28.2432 -26.4929 -0.6509 5.0000
29.3612 -33.0503 -1.0000 12.0000
21.1592 -28.7916 -1.0163 17.0000
21.3019 -35.3304 -1.4134 21.0000
6.4282 -10.5422 -2.2403 36.0000
13.3920 -22.2690 -2.9213 6.0000
17.1720 -28.5688 1.3459 38.0000
25.7357 -24.4300 2.0642 22.0000
6.7262 -11.2195 1.0647 47.0000
8.3824 -13.8204 2.9399 19.0000
8.8020 -8.5072 3.2808 34.0000
25.8384 -24.4079 0.2175 9.0000
23.3659 -26.5065 0.0000 28.0000
7.1155 -11.8461 -0.1474 49.0000
25.6270 -24.0062 1.0208 28.0000
20.4633 -27.8245 0.6347 9.0000
7.1209 -11.7901 0.1642 48.0000
0.4470 -0.4225 -0.2684 4.0000
3.5341 -3.3059 -1.2506 9.0000
3.6971 -3.5148 -0.7016 5.0000
3.8597 -3.6704 -0.4971 7.0000
13.1314 -12.4255 -1.1447 13.0000
4.2008 -4.7746 -0.4419 7.0000
21.1988 -29.0999 -2.7135 4.0000
13.5374 -12.6894 -0.7369 4.0000
12.7750 -14.3922 -0.8946 19.0000
21.2192 -28.9580 -1.8907 8.0000
20.6181 -34.0483 -2.2789 29.0000
55.4113 -52.3345 -1.2818 6.0000
29.1035 -32.9914 -0.9951 13.0000
21.0704 -28.8814 -1.0168 20.0000
6.4245 -10.6193 -2.2519 32.0000
13.3396 -22.3583 -2.9269 8.0000
7.0750 -11.8582 0.5566 49.0000
25.7153 -24.5817 2.0695 33.0000
7.4482 -12.5239 1.1863 27.0000
8.3240 -13.8327 2.9363 28.0000
9.0526 -8.8106 3.3860 43.0000
28.2386 -26.8615 0.2385 18.0000
23.2567 -26.5691 0.0000 14.0000
21.1277 -29.1412 -0.2090 13.0000
17.1468 -28.7881 -0.3581 6.0000
25.1805 -28.6053 0.8978 2.0000
19.8001 -27.1205 0.6171 15.0000
7.0977 -11.8449 0.1646 57.0000
0.4488 -0.4272 -0.2705 4.0000
3.5049 -3.3017 -1.2443 9.0000
3.6597 -3.5037 -0.6968 4.0000
3.8505 -3.6873 -0.4976 7.0000
4.1742 -4.7779 -0.4409 7.0000
21.0912 -29.1657 -2.7128 4.0000
19.6609 -33.0893 -3.1031 16.0000
13.4349 -12.6818 -0.7337 4.0000
12.8007 -14.5228 -0.8999 22.0000
21.2032 -29.1490 -1.8983 15.0000
21.1828 -35.2583 -2.3550 19.0000
55.3116 -52.6068 -1.2838 6.0000
24.0901 -27.5017 -0.8269 6.0000
20.8815 -28.8333 -1.0126 12.0000
20.4454 -34.4511 -1.3724 8.0000
6.3949 -10.6543 -2.2546 41.0000
13.3045 -22.4775 -2.9364 9.0000
7.0285 -11.8742 0.5562 77.0000
25.6257 -24.6679 2.0692 27.0000
7.3361 -12.4339 1.1753 31.0000
10.5804 -10.2821 1.8113 29.0000
8.3185 -13.9335 2.9515 20.0000
9.0632 -8.8827 3.4016 18.0000
27.9641 -26.7870 0.2370 13.0000
23.7641 -27.3406 0.0000 10.0000
21.3559 -29.6734 -0.2123 16.0000
17.0487 -28.8521 -0.3581 12.0000
22.6032 -25.8592 0.8091 28.0000
21.1809 -29.2256 0.6633 8.0000
7.0691 -11.8911 0.1649 52.0000
0.4473 -0.4287 -0.2705 4.0000
3.4758 -3.2972 -1.2380 9.0000
3.6367 -3.5062 -0.6948 3.0000
3.8448 -3.7076 -0.4985 7.0000
13.0623 -12.5341 -1.1463 17.0000
4.1444 -4.7774 -0.4395 7.0000
28.7547 -40.0578 -3.7176 15.0000
19.5326 -33.1362 -3.1011 43.0000
13.3181 -12.6598 -0.7297 2.0000
12.7729 -14.5937 -0.9015 26.0000
21.1744 -29.3240 -1.9049 15.0000
20.5205 -34.4272 -2.2946 16.0000
55.1059 -52.7788 -1.2833 7.0000
28.4492 -32.7072 -0.9805 23.0000
19.4556 -33.0451 -1.3136 18.0000
6.3753 -10.7061 -2.2608 45.0000
13.2637 -22.5880 -2.9448 10.0000
6.9920 -11.9073 0.5566 84.0000
8.2523 -13.9328 2.9452 13.0000
9.1043 -8.9855 3.4288 7.0000
27.9748 -26.9851 0.2379 14.0000
22.8126 -26.4318 0.0000 12.0000
21.2812 -29.7884 -0.2125 7.0000
16.9808 -28.9675 -0.3588 7.0000
22.3719 -25.7756 0.8040 10.0000
19.6921 -27.3717 0.6196 13.0000
16.8557 -28.5939 0.3964 20.0000
0.4458 -0.4303 -0.2705 4.0000
3.4502 -3.2960 -1.2329 10.0000
3.6103 -3.5051 -0.6920 4.0000
3.8389 -3.7279 -0.4995 8.0000
13.0364 -12.5969 -1.1479 2.0000
4.1147 -4.7767 -0.4381 7.0000
27.2173 -38.1967 -3.5359 9.0000
24.2159 -41.4135 -3.8685 14.0000
12.6859 -14.5968 -0.8990 29.0000
21.7176 -30.2987 -1.9633 13.0000
19.6304 -33.1966 -2.2079 16.0000
19.0036 -18.3339 -0.4437 12.0000
24.3321 -28.1723 -0.8419 13.0000
21.0484 -29.4951 -1.0306 10.0000
19.1083 -32.7158 -1.2979 12.0000
6.3504 -10.7495 -2.2653 40.0000
13.2223 -22.6986 -2.9532 10.0000
6.9705 -11.9661 0.5582 7.0000
25.3528 -24.7486 2.0610 21.0000
6.9215 -11.9201 1.1220 46.0000
10.5013 -10.3488 1.8101 4.0000
8.2061 -13.9658 2.9461 11.0000
22.6356 -26.4125 0.0000 14.0000
23.1206 -32.6034 -0.2321 7.0000
16.9223 -29.1001 -0.3597 16.0000
25.9301 -24.9787 1.0467 18.0000
22.4124 -26.0050 0.8087 23.0000
19.6952 -27.5786 0.6228 9.0000
19.5288 -33.3961 0.4621 9.0000
0.4476 -0.4350 -0.2726 4.0000
3.4212 -3.2913 -1.2266 9.0000
3.5874 -3.5073 -0.6900 10.0000
3.8330 -3.7483 -0.5004 10.0000
4.5069 -4.3906 -0.3968 3.0000
10.7083 -15.1377 -1.3961 43.0000
21.7362 -30.5493 -1.9746 6.0000
19.5145 -33.2649 -2.2079 31.0000
28.3438 -33.0492 -0.9848 9.0000
23.0021 -32.4723 -1.1320 6.0000
19.0015 -32.7953 -1.2984 17.0000
6.3253 -10.7928 -2.2698 38.0000
13.1802 -22.8092 -2.9616 10.0000
12.0046 -20.7820 0.9686 50.0000
6.8649 -11.9183 1.1196 48.0000
10.4299 -10.3504 1.8040 5.0000
7.1373 -12.2432 2.5766 7.0000
7.2762 -7.2836 2.7576 18.0000
27.8572 -27.2497 0.2385 11.0000
23.6807 -27.8279 0.0000 12.0000
10.6982 -15.1966 -0.1078 17.0000
19.9101 -34.5167 -0.4259 21.0000
26.2016 -25.4170 1.0612 16.0000
23.8718 -27.8945 0.8649 5.0000
19.5872 -27.6309 0.6224 11.0000
17.3429 -29.8960 0.4128 12.0000
0.4461 -0.4365 -0.2726 4.0000
3.3958 -3.2898 -1.2216 9.0000
3.5928 -3.5371 -0.6934 6.0000
3.8306 -3.7721 -0.5018 9.0000
4.4808 -4.3958 -0.3958 4.0000
4.0393 -4.7559 -0.4335 7.0000
10.6898 -15.2240 -1.4006 47.0000
22.6712 -39.3999 -3.6654 17.0000
13.2099 -12.8229 -0.7311 17.0000
12.6031 -14.7077 -0.9004 36.0000
10.8197 -15.3181 -0.9867 33.0000
20.1663 -34.6532 -2.2955 27.0000
27.6822 -27.0786 -0.6509 17.0000
28.3806 -33.3268 -0.9902 9.0000
10.7436 -15.2781 -0.5307 41.0000
18.9890 -33.0391 -1.3054 11.0000
6.3147 -10.8616 -2.2796 34.0000
13.1376 -22.9197 -2.9700 10.0000
11.9171 -20.7978 0.9674 47.0000
24.3315 -24.0858 1.9916 33.0000
6.8307 -11.9551 1.1208 47.0000
7.0674 -12.2212 2.5668 40.0000
7.2712 -7.3295 2.7654 32.0000
27.8082 -27.3924 0.2389 14.0000
23.5479 -27.8684 0.0000 21.0000
10.6050 -15.1765 -0.1074 39.0000
18.9554 -33.1278 -0.4079 14.0000
24.1639 -23.6053 0.9820 25.0000
24.2275 -28.5109 0.8814 8.0000
10.6305 -15.1063 0.3391 39.0000
17.1811 -29.8566 0.4114 7.0000
0.4445 -0.4381 -0.2726 4.0000
3.3670 -3.2847 -1.2153 9.0000
3.5839 -3.5531 -0.6941 6.0000
3.8245 -3.7924 -0.5027 7.0000
4.4655 -4.4114 -0.3958 4.0000
12.4731 -14.7839 -1.3498 9.0000
10.6394 -15.2653 -1.4010 45.0000
22.5360 -39.4831 -3.6658 24.0000
13.1651 -12.8689 -0.7311 31.0000
28.4588 -33.4424 -2.0436 18.0000
10.7461 -15.3272 -0.9848 43.0000
19.9155 -34.4985 -2.2806 20.0000
26.8217 -26.4209 -0.6328 13.0000
28.0382 -33.1585 -0.9822 11.0000
10.7016 -15.3319 -0.5313 34.0000
18.7894 -32.9576 -1.2996 22.0000
6.3063 -10.9348 -2.2904 31.0000
13.0943 -23.0302 -2.9784 9.0000
24.6291 -24.5511 2.0229 20.0000
17.8655 -31.5408 2.9560 13.0000
10.4518 -10.5180 1.8205 25.0000
7.0418 -12.2757 2.5730 36.0000
7.2625 -7.3721 2.7719 19.0000
27.5385 -27.3168 0.2374 6.0000
23.4858 -27.9925 0.0000 14.0000
10.5633 -15.2299 -0.1075 37.0000
20.0634 -35.3506 -0.4345 14.0000
24.0208 -23.6299 0.9795 19.0000
23.0608 -27.3309 0.8424 39.0000
10.5920 -15.1638 0.3396 36.0000
0.4463 -0.4428 -0.2747 4.0000
3.3451 -3.2863 -1.2115 10.0000
3.8182 -3.8128 -0.5037 8.0000
12.8628 -12.7813 -1.1482 45.0000
12.4022 -14.8045 -1.3477 29.0000
10.6087 -15.3352 -1.4040 37.0000
13.1521 -12.9463 -0.7329 35.0000
28.4321 -33.6483 -2.0502 16.0000
10.6839 -15.3523 -0.9840 46.0000
19.9735 -34.8797 -2.3012 10.0000
