# .PCD v0.7 - Point Cloud Data file format
VERSION 0.7
FIELDS x y z intensity
SIZE 4 4 4 4
TYPE F F F F
COUNT 1 1 1 1
WIDTH 1601
HEIGHT 1
VIEWPOINT 0 0 0 1 0 0 0
POINTS 1601
DATA ascii
25.7510 8.5379 -0.1574 12.0000
6.4975 1.5257 -0.0710 7.0000
7.6288 4.2359 0.2528 3.0000
32.6567 14.3737 0.8405 17.0000
72.2037 24.2026 1.4003 6.0000
15.2660 3.6167 0.1871 43.0000
4.8955 2.7270 -1.4498 31.0000
4.9502 2.7049 -0.7765 11.0000
7.5040 4.1020 -0.8005 12.0000
7.4142 4.0696 -0.5342 50.0000
5.6052 1.8522 -0.4424 18.0000
5.6485 1.3209 -0.4650 2.0000
7.3516 4.0801 -0.3330 53.0000
13.6144 6.0023 -0.6912 37.0000
5.8402 1.9478 -0.3225 13.0000
7.7441 1.8486 -0.4540 8.0000
7.4952 4.1208 -0.1433 49.0000
21.3067 9.3152 -0.5256 8.0000
6.2058 2.0553 -0.1850 3.0000
4.7997 1.1442 -0.8909 12.0000
5.2948 1.2288 -0.6075 10.0000
15.3177 3.5417 0.6340 45.0000
32.7443 17.7724 2.1674 17.0000
15.2892 3.5127 1.2774 30.0000
29.9104 16.0586 4.1743 14.0000
7.6553 4.1743 0.0532 3.0000
25.2986 10.9455 0.0000 2.0000
6.5077 1.5041 -0.0710 12.0000
7.6829 4.2310 0.2541 17.0000
32.8350 14.3155 0.8438 15.0000
88.0428 29.1700 1.7057 10.0000
15.2931 3.5668 0.1873 42.0000
4.9092 2.7123 -1.4510 31.0000
4.9640 2.6900 -0.7772 4.0000
7.5314 4.0829 -0.8019 15.0000
7.4503 4.0556 -0.5358 55.0000
5.6337 1.2967 -0.4633 19.0000
7.3964 4.0713 -0.3344 51.0000
13.7131 5.9887 -0.6952 33.0000
7.7164 1.8136 -0.4520 8.0000
7.5447 4.1138 -0.1439 49.0000
21.4629 9.2944 -0.5286 9.0000
6.1417 2.0103 -0.1829 3.0000
6.0779 1.3951 -0.2125 38.0000
4.8181 1.1308 -0.8936 11.0000
5.2991 1.2103 -0.6075 11.0000
15.3738 3.4982 0.6358 24.0000
15.3257 3.4648 1.2795 34.0000
28.4333 15.1376 3.9605 11.0000
15.9221 8.3888 4.8284 34.0000
7.7138 4.1713 0.0535 38.0000
6.5129 1.4814 -0.0710 14.0000
7.7327 4.2233 0.2553 4.0000
67.9715 22.2574 1.3151 17.0000
4.9229 2.6974 -1.4523 29.0000
4.7291 2.5411 -0.7387 6.0000
7.5588 4.0637 -0.8033 15.0000
7.5083 4.0533 -0.5389 49.0000
5.7973 2.4778 -0.4381 12.0000
5.6673 1.2836 -0.4658 19.0000
7.4456 4.0646 -0.3360 51.0000
13.8164 5.9765 -0.6994 28.0000
7.7081 1.7833 -0.4511 8.0000
7.5898 4.1041 -0.1445 49.0000
21.6055 9.2667 -0.5314 8.0000
6.0916 1.9704 -0.1812 4.0000
6.1023 1.3783 -0.2132 6.0000
4.8364 1.1173 -0.8963 10.0000
5.3081 1.1928 -0.6081 10.0000
31.7316 16.9368 2.0924 41.0000
31.4017 6.9785 2.6228 5.0000
28.2533 14.9154 3.9281 16.0000
13.1698 3.0021 2.4556 38.0000
15.9898 8.3533 4.8401 17.0000
7.7679 4.1657 0.0538 11.0000
15.4574 4.9467 -0.0941 2.0000
6.5278 1.4609 -0.0711 12.0000
7.7825 4.2153 0.2564 5.0000
31.9828 13.6790 0.8194 14.0000
67.9632 21.9923 1.3135 17.0000
31.6853 7.1516 0.3879 10.0000
4.9365 2.6826 -1.4536 29.0000
4.7205 2.5153 -0.7360 14.0000
7.6081 4.0560 -0.8070 10.0000
7.5532 4.0436 -0.5412 49.0000
5.8151 2.4614 -0.4388 14.0000
5.6100 1.7889 -0.4413 17.0000
5.6280 1.2541 -0.4621 18.0000
7.4905 4.0553 -0.3374 50.0000
13.8785 5.9459 -0.7015 31.0000
6.8062 2.1908 -0.3749 38.0000
7.6802 1.7487 -0.4491 7.0000
7.6393 4.0965 -0.1452 50.0000
21.7711 9.2480 -0.5346 8.0000
6.1080 1.9521 -0.1814 6.0000
6.0924 1.3538 -0.2127 8.0000
4.8594 1.1047 -0.8999 9.0000
5.3171 1.1754 -0.6087 10.0000
27.6744 6.0900 1.1439 32.0000
31.8743 16.8703 2.0979 18.0000
31.3187 6.8454 2.6138 6.0000
28.9515 15.1551 4.0179 6.0000
13.1802 2.9561 2.4556 43.0000
7.8222 4.1597 0.0540 2.0000
31.9018 13.4080 0.0000 10.0000
15.4079 4.8716 -0.0937 39.0000
6.5377 1.4391 -0.0712 9.0000
7.8324 4.2071 0.2576 8.0000
31.9659 13.5400 0.8178 18.0000
68.2443 21.8204 1.3174 8.0000
31.7149 7.0420 0.3879 13.0000
4.9458 2.6653 -1.4536 25.0000
4.7205 2.4942 -0.7346 10.0000
7.7674 4.1063 -0.8225 2.0000
7.6069 4.0383 -0.5440 4.0000
5.8283 2.4430 -0.4391 7.0000
6.7338 2.1211 -0.5297 37.0000
7.6141 1.6669 -0.6258 32.0000
7.5354 4.0457 -0.3388 50.0000
13.9819 5.9326 -0.7056 29.0000
6.8090 2.1655 -0.3746 5.0000
7.6619 1.7164 -0.4477 9.0000
7.6844 4.0863 -0.1458 49.0000
21.9507 9.2339 -0.5383 8.0000
6.1291 1.9353 -0.1819 7.0000
6.0824 1.3293 -0.2121 10.0000
4.8873 1.0931 -0.9043 9.0000
5.3212 1.1568 -0.6087 10.0000
27.5538 5.9627 1.1381 9.0000
31.7297 16.6522 2.0846 11.0000
32.1366 6.9066 2.6801 8.0000
26.3044 13.6521 3.6434 16.0000
15.9232 8.1775 4.8024 30.0000
7.8764 4.1534 0.0543 3.0000
31.8607 13.2601 0.0000 18.0000
25.8817 8.0828 -0.1574 13.0000
6.5525 1.4184 -0.0713 8.0000
7.8823 4.1986 0.2588 17.0000
31.9807 13.4148 0.8170 10.0000
31.6709 6.9163 0.3871 19.0000
4.9594 2.6503 -1.4548 25.0000
4.7160 2.4708 -0.7325 8.0000
7.7728 4.0746 -0.8215 5.0000
5.8414 2.4246 -0.4395 10.0000
7.5127 1.6173 -0.6170 42.0000
7.5848 4.0382 -0.3404 59.0000
14.0394 5.8992 -0.7075 27.0000
6.8261 2.1447 -0.3751 10.0000
7.6484 1.6854 -0.4466 8.0000
7.7340 4.0781 -0.1465 49.0000
22.1212 9.2149 -0.5417 9.0000
6.6607 2.0775 -0.1975 37.0000
6.0821 1.3070 -0.2120 11.0000
4.9247 1.0834 -0.9106 7.0000
5.3300 1.1393 -0.6092 8.0000
27.3106 5.8104 1.1272 9.0000
25.7086 13.3768 1.6855 10.0000
32.1849 6.7995 2.6822 16.0000
28.1477 14.4847 3.8921 6.0000
13.1861 2.8609 2.4529 37.0000
15.9645 8.1284 4.8063 34.0000
7.9484 4.1560 0.0547 20.0000
33.2797 13.7147 0.0000 6.0000
25.8429 7.9717 -0.1570 45.0000
6.5672 1.3976 -0.0714 8.0000
7.9278 4.1874 0.2598 48.0000
32.7982 13.6233 0.8366 9.0000
25.8745 8.0754 0.4979 17.0000
31.3283 6.7271 0.3826 10.0000
4.9686 2.6330 -1.4548 24.0000
4.7071 2.4451 -0.7298 9.0000
7.8135 4.0612 -0.8243 7.0000
8.1125 4.2347 -0.5782 34.0000
5.8590 2.4080 -0.4402 11.0000
6.7342 2.0696 -0.5286 15.0000
7.6548 1.6199 -0.6283 10.0000
7.6297 4.0280 -0.3418 57.0000
14.0830 5.8598 -0.7087 29.0000
6.8287 2.1194 -0.3749 10.0000
7.6396 1.6555 -0.4457 10.0000
7.7836 4.0696 -0.1471 59.0000
22.2826 9.1910 -0.5448 8.0000
6.0818 1.2847 -0.2118 10.0000
4.9381 1.0683 -0.9124 7.0000
5.3340 1.1207 -0.6092 10.0000
26.5434 5.5506 1.0947 70.0000
26.6458 5.5332 2.2184 18.0000
26.1383 13.3351 3.6074 36.0000
13.3644 2.8507 2.4843 47.0000
16.1609 8.1576 4.8570 16.0000
7.9851 4.1397 0.0549 19.0000
33.4756 13.6589 0.0000 36.0000
25.9184 7.8960 -0.1572 3.0000
6.5818 1.3767 -0.0715 8.0000
8.0044 4.1922 0.2618 47.0000
34.0290 13.9956 0.8668 14.0000
25.8977 7.9835 0.4979 62.0000
26.5427 5.6034 0.3239 48.0000
4.9778 2.6156 -1.4548 25.0000
4.7024 2.4219 -0.7277 9.0000
7.8542 4.0476 -0.8271 8.0000
8.1449 4.2156 -0.5795 21.0000
5.8720 2.3894 -0.4405 9.0000
6.7270 2.0417 -0.5274 14.0000
7.6262 1.5861 -0.6254 10.0000
7.6747 4.0176 -0.3432 56.0000
14.1264 5.8201 -0.7098 28.0000
6.8982 2.1145 -0.3783 25.0000
7.6355 1.6267 -0.4451 9.0000
7.8333 4.0609 -0.1478 48.0000
10.8337 4.4233 -0.2640 20.0000
6.0813 1.2625 -0.2116 8.0000
4.9803 1.0592 -0.9196 9.0000
5.3379 1.1020 -0.6092 11.0000
26.5968 5.4649 1.0961 51.0000
31.6935 16.2121 2.0709 11.0000
26.5526 5.4172 2.2090 55.0000
26.1183 13.2101 3.5982 27.0000
15.4686 3.2424 2.8744 17.0000
8.0706 4.1485 0.0553 26.0000
32.5541 13.1505 0.0000 11.0000
6.7937 2.0450 -0.0410 2.0000
6.6013 1.3567 -0.0717 7.0000
8.0722 4.1919 0.2636 46.0000
25.9781 7.9091 0.4989 7.0000
26.6013 5.5189 0.3243 33.0000
4.9954 2.6027 -1.4574 25.0000
4.6976 2.3987 -0.7257 9.0000
7.8771 4.0247 -0.8281 12.0000
8.1951 4.2054 -0.5820 28.0000
6.7246 2.0154 -0.5267 13.0000
6.6746 1.3645 -0.5466 7.0000
7.7197 4.0069 -0.3446 58.0000
10.7616 4.3894 -0.5395 26.0000
6.9437 2.1020 -0.3804 14.0000
7.6314 1.5980 -0.4446 9.0000
7.8830 4.0518 -0.1485 47.0000
10.8306 4.3780 -0.2636 43.0000
6.0857 1.2413 -0.2116 7.0000
5.3514 1.0854 -0.6103 12.0000
33.1076 16.7902 2.1596 12.0000
26.6202 5.3343 2.2131 10.0000
17.9360 8.9913 2.4650 28.0000
15.3786 3.1675 2.8556 6.0000
8.0806 4.1180 0.0553 35.0000
33.1848 13.2707 0.0000 16.0000
6.7768 2.0142 -0.0409 17.0000
6.6207 1.3366 -0.0718 8.0000
8.1401 4.1912 0.2653 46.0000
32.4384 13.0772 0.8239 13.0000
5.0045 2.5853 -1.4574 25.0000
4.6927 2.3755 -0.7236 9.0000
7.9666 4.0354 -0.8360 11.0000
8.2053 4.1745 -0.5817 27.0000
6.6500 1.3354 -0.5442 9.0000
7.7648 3.9960 -0.3460 49.0000
10.7213 4.3293 -0.5367 42.0000
6.9462 2.0763 -0.3801 3.0000
7.6223 1.5684 -0.4437 9.0000
7.9371 4.0447 -0.1492 47.0000
10.8551 4.3438 -0.2638 49.0000
6.1811 1.8337 -0.1824 6.0000
6.0851 1.2190 -0.2115 5.0000
5.3394 1.0963 -0.9849 13.0000
5.3795 1.0715 -0.6131 12.0000
28.5260 5.6536 1.1740 10.0000
28.3009 14.2277 1.8424 11.0000
28.7316 5.6527 2.3872 8.0000
17.9095 8.8999 2.4571 41.0000
15.1919 3.0739 2.8188 5.0000
15.9378 7.8365 4.7648 17.0000
8.0860 4.0852 0.0553 35.0000
32.5708 12.8935 0.0000 14.0000
6.8126 1.9990 -0.0410 26.0000
6.6449 1.3174 -0.0721 8.0000
8.1991 4.1855 0.2668 41.0000
31.8014 12.6915 0.8066 17.0000
68.1831 20.2371 1.3078 8.0000
5.0178 2.5700 -1.4586 20.0000
4.6876 2.3525 -0.7215 10.0000
8.0607 4.0479 -0.8445 13.0000
8.2109 4.1413 -0.5811 30.0000
5.6961 1.1239 -0.4654 9.0000
7.8098 3.9848 -0.3474 52.0000
10.7178 4.2844 -0.5358 41.0000
7.6375 1.5437 -0.4443 8.0000
7.9869 4.0351 -0.1499 47.0000
10.8562 4.3004 -0.2635 43.0000
6.2066 1.8178 -0.1830 5.0000
6.0991 1.1997 -0.2118 4.0000
5.3480 1.0786 -0.9858 9.0000
5.4028 1.0565 -0.6154 10.0000
28.5113 5.5474 1.1726 14.0000
28.6140 14.2602 1.8596 8.0000
32.8418 6.3416 2.7273 12.0000
17.7268 8.7320 2.4277 24.0000
14.0446 2.7911 2.6035 21.0000
16.0171 7.8063 4.7804 17.0000
8.1673 4.0906 0.0557 46.0000
26.2704 10.2930 0.0000 32.0000
6.8003 1.9696 -0.0409 26.0000
6.6691 1.2980 -0.0723 7.0000
8.2583 4.1794 0.2682 41.0000
32.0082 12.6447 0.8107 15.0000
31.6197 9.2657 0.6055 5.0000
4.6825 2.3294 -0.7195 9.0000
8.0614 4.0131 -0.8431 9.0000
8.1985 4.0992 -0.5792 15.0000
5.6559 1.0955 -0.4617 3.0000
7.8549 3.9733 -0.3487 49.0000
8.0411 4.0273 -0.1507 48.0000
10.9084 4.2771 -0.2644 47.0000
6.1937 1.7905 -0.1824 6.0000
6.0837 1.1746 -0.2111 3.0000
5.2938 1.0485 -0.9751 8.0000
5.4357 1.0432 -0.6187 9.0000
29.0114 5.5396 1.1924 9.0000
28.8023 14.2288 1.8686 41.0000
27.8694 5.2814 2.3124 12.0000
17.2578 8.4261 2.3593 17.0000
14.0349 2.7383 2.6000 35.0000
16.6616 8.0487 4.9647 3.0000
8.2307 4.0866 0.0561 42.0000
26.2363 10.1742 0.0000 41.0000
6.7783 1.9376 -0.0407 22.0000
6.6883 1.2775 -0.0724 7.0000
31.7135 15.9298 1.0317 11.0000
31.6611 12.3800 0.8008 19.0000
31.6663 9.1595 0.6057 5.0000
30.8290 5.9474 0.3749 12.0000
4.6818 2.3087 -0.7181 10.0000
8.0932 3.9937 -0.8449 9.0000
8.1770 4.0528 -0.5766 16.0000
5.7881 1.6473 -0.4511 3.0000
5.5862 1.0619 -0.4557 18.0000
7.8999 3.9615 -0.3501 47.0000
6.6941 1.9249 -0.3651 19.0000
8.0954 4.0193 -0.1514 47.0000
10.9000 4.2299 -0.2638 7.0000
6.4595 1.8429 -0.1901 12.0000
6.0779 1.1515 -0.2108 4.0000
5.1960 1.0104 -0.9563 10.0000
5.4686 1.0297 -0.6221 9.0000
28.7487 14.0776 1.8619 15.0000
27.9611 5.1977 2.3185 4.0000
17.2379 8.3420 2.3526 22.0000
14.0347 2.6875 2.5982 11.0000
16.6765 7.9842 4.9608 10.0000
8.3032 4.0866 0.0565 44.0000
26.3230 10.1022 0.0000 15.0000
6.7610 1.9072 -0.0406 19.0000
6.7124 1.2578 -0.0726 7.0000
28.8522 14.3660 0.9369 10.0000
26.3340 10.1908 0.6650 31.0000
31.5346 9.0022 0.6026 8.0000
112.7418 21.3283 1.3714 3.0000
4.4386 2.2142 -1.2821 13.0000
4.6764 2.2858 -0.7161 10.0000
8.1026 3.9632 -0.8445 17.0000
8.1822 4.0199 -0.5760 17.0000
5.7345 2.1945 -0.4266 19.0000
5.6389 1.0515 -0.4597 13.0000
7.9450 3.9495 -0.3515 45.0000
6.0264 2.3351 -0.2992 17.0000
6.6863 1.8974 -0.3643 17.0000
8.1543 4.0131 -0.1523 47.0000
10.7840 4.1416 -0.2606 5.0000
6.3552 1.7892 -0.1869 6.0000
6.0720 1.1285 -0.2104 12.0000
5.2382 0.9996 -0.9634 9.0000
5.5064 1.0169 -0.6260 7.0000
29.0444 5.3360 1.1922 5.0000
28.0972 13.6371 1.8166 13.0000
32.1465 5.8590 2.6643 33.0000
17.2088 8.2539 2.3447 23.0000
17.2364 8.1787 5.1192 15.0000
8.3848 4.0905 0.0569 40.0000
10.7231 4.0711 0.0000 28.0000
6.7435 1.8769 -0.0405 15.0000
6.7364 1.2380 -0.0729 8.0000
28.9066 14.2674 0.9370 34.0000
26.3508 10.0916 0.6645 39.0000
69.6379 19.6152 1.3303 10.0000
112.7320 20.9191 1.3704 3.0000
4.4203 2.1858 -1.2746 17.0000
4.6755 2.2651 -0.7147 10.0000
8.1109 3.9497 -0.5700 3.0000
5.7328 2.1710 -0.4259 15.0000
6.0157 1.6667 -0.4680 49.0000
5.6769 1.0380 -0.4625 9.0000
8.0125 3.9483 -0.3539 46.0000
6.0345 2.3141 -0.2992 12.0000
6.6785 1.8700 -0.3635 16.0000
5.8084 1.0911 -0.3364 22.0000
8.2131 4.0065 -0.1531 47.0000
10.6629 4.0525 -0.2574 41.0000
6.1832 1.7176 -0.1816 8.0000
5.2900 0.9903 -0.9724 9.0000
5.5392 1.0030 -0.6294 3.0000
30.9953 5.5823 1.2716 38.0000
28.1356 13.5346 1.8160 11.0000
32.2354 5.7590 2.6700 5.0000
14.2418 2.6241 2.6331 25.0000
17.2649 8.1184 5.1192 11.0000
8.4216 4.0721 0.0571 4.0000
6.7355 1.8493 -0.0404 12.0000
6.7604 1.2180 -0.0731 11.0000
34.3476 16.8053 1.1117 11.0000
26.4092 10.0085 0.6651 42.0000
70.6307 19.6290 1.3480 5.0000
92.0858 16.7566 1.1186 4.0000
4.4236 2.1682 -1.2733 20.0000
4.6700 2.2424 -0.7126 10.0000
8.1741 3.9453 -0.5735 3.0000
5.7169 2.1422 -0.4241 13.0000
6.0696 1.6588 -0.4718 17.0000
5.6903 1.0200 -0.4633 6.0000
8.0756 3.9445 -0.3561 45.0000
6.0425 2.2930 -0.2992 17.0000
6.6705 1.8427 -0.3628 17.0000
8.2676 3.9975 -0.1539 47.0000
10.6817 4.0170 -0.2575 41.0000
6.1313 1.6801 -0.1799 7.0000
6.1044 1.0904 -0.2113 42.0000
5.3321 0.9789 -0.9796 8.0000
5.5770 0.9897 -0.6333 3.0000
31.0982 5.4888 1.2750 8.0000
32.2897 5.6524 2.6728 6.0000
17.2929 8.1462 2.3483 25.0000
14.2364 2.5718 2.6304 16.0000
17.2975 8.0602 5.1205 7.0000
32.0509 15.3774 0.2175 6.0000
10.7466 3.9944 0.0000 46.0000
6.7227 1.8206 -0.0402 12.0000
6.7843 1.1979 -0.0733 9.0000
70.7808 19.4048 1.3495 4.0000
4.4181 2.1464 -1.2695 18.0000
4.6688 2.2218 -0.7112 11.0000
5.3355 2.5387 -0.5519 7.0000
8.1788 3.9124 -0.5728 47.0000
5.7010 2.1135 -0.4224 13.0000
6.6964 1.8048 -0.5203 11.0000
8.1388 3.9402 -0.3583 43.0000
6.0411 2.2684 -0.2987 15.0000
5.8061 1.0487 -0.3359 10.0000
8.3265 3.9902 -0.1547 46.0000
10.7518 4.0006 -0.2588 43.0000
6.1130 1.6522 -0.1792 6.0000
6.1081 1.0691 -0.2113 37.0000
5.3888 0.9698 -0.9894 10.0000
5.5804 0.9702 -0.6333 12.0000
27.9664 4.8360 1.1458 7.0000
31.1304 5.3377 2.5752 12.0000
17.3437 8.0963 2.3514 15.0000
28.2877 5.0032 5.2304 15.0000
10.7370 3.9482 0.0000 44.0000
6.7096 1.7920 -0.0401 14.0000
6.8082 1.1776 -0.0735 8.0000
29.1986 14.0333 0.9417 6.0000
33.5501 12.4481 0.8430 30.0000
72.3772 12.6500 0.8780 4.0000
4.4212 2.1289 -1.2682 16.0000
4.6631 2.1991 -0.7092 11.0000
5.3443 2.5201 -0.5519 8.0000
8.2871 3.9288 -0.5795 47.0000
5.6756 2.0816 -0.4199 14.0000
6.6737 1.7737 -0.5180 10.0000
6.6159 1.1374 -0.5386 4.0000
8.2065 3.9378 -0.3607 43.0000
6.0818 2.2594 -0.3004 15.0000
6.5338 1.7560 -0.3546 18.0000
5.8195 1.0302 -0.3364 11.0000
8.3991 3.9890 -0.1558 45.0000
10.7751 3.9665 -0.2591 46.0000
6.1139 1.6296 -0.1790 7.0000
6.1217 1.0495 -0.2116 9.0000
5.4406 0.9595 -0.9984 23.0000
5.5690 0.9482 -0.6316 15.0000
24.1902 4.0968 0.9902 4.0000
30.1216 5.0568 2.4902 5.0000
16.5568 7.6584 2.2408 18.0000
13.7499 2.3851 2.5372 26.0000
16.9670 7.7623 5.0063 36.0000
26.7620 12.6098 0.1810 17.0000
10.7319 3.9039 0.0000 47.0000
6.7207 1.7698 -0.0402 15.0000
6.8566 1.1613 -0.0740 7.0000
32.8613 15.6535 1.0582 18.0000
33.3165 12.2293 0.8360 12.0000
79.9135 21.3096 1.5209 3.0000
27.5070 4.7119 0.3332 33.0000
4.4242 2.1113 -1.2670 13.0000
4.6618 2.1786 -0.7078 11.0000
5.3531 2.5014 -0.5519 9.0000
8.3640 3.9296 -0.5839 42.0000
5.6734 2.0583 -0.4192 14.0000
6.6799 1.7504 -0.5180 13.0000
8.2744 3.9349 -0.3631 43.0000
6.1224 2.2503 -0.3020 10.0000
6.6460 1.7613 -0.3604 18.0000
5.8526 1.0150 -0.3381 6.0000
8.4718 3.9874 -0.1569 44.0000
10.7795 3.9254 -0.2588 46.0000
6.0858 1.5993 -0.1780 7.0000
6.1155 1.0265 -0.2113 4.0000
5.4924 0.9488 -1.0073 9.0000
5.5625 0.9272 -0.6305 18.0000
27.8714 4.6194 1.1405 5.0000
26.7598 12.4154 1.7157 29.0000
24.9067 4.0929 2.0573 15.0000
16.9412 7.6791 4.9907 11.0000
26.7470 12.4888 0.1806 36.0000
10.7596 3.8715 0.0000 47.0000
6.7268 1.7463 -0.0402 15.0000
6.8902 1.1422 -0.0743 8.0000
29.0383 13.7074 0.9334 8.0000
72.0776 18.9510 1.3704 24.0000
30.6495 5.1396 0.3711 6.0000
4.4228 2.0917 -1.2645 9.0000
4.6604 2.1582 -0.7064 12.0000
5.3528 2.4785 -0.5510 9.0000
8.4409 3.9299 -0.5883 40.0000
5.6994 2.0453 -0.4206 13.0000
6.6715 1.7234 -0.5169 12.0000
6.6236 1.0912 -0.5386 6.0000
8.3423 3.9316 -0.3654 41.0000
6.1068 2.2203 -0.3008 3.0000
6.6715 1.7431 -0.3614 25.0000
5.8463 0.9929 -0.3376 3.0000
8.5445 3.9853 -0.1580 38.0000
6.0865 1.5768 -0.1779 8.0000
6.1289 1.0067 -0.2116 5.0000
5.5490 0.9386 -1.0172 8.0000
5.5608 0.9070 -0.6299 23.0000
24.0110 3.8942 0.9818 33.0000
26.7667 12.3052 1.7134 41.0000
24.8421 3.9933 2.0508 38.0000
16.8222 7.6391 2.2695 5.0000
13.3489 2.2198 2.4600 35.0000
16.8314 7.5586 4.9505 12.0000
26.7950 12.3974 0.1806 32.0000
6.7377 1.7241 -0.0402 13.0000
6.9386 1.1253 -0.0748 8.0000
26.7819 12.5276 0.8593 30.0000
72.2208 18.7194 1.3719 5.0000
30.6031 5.0221 0.3703 47.0000
4.4213 2.0722 -1.2619 12.0000
4.6634 2.1398 -0.7058 11.0000
5.3478 2.4536 -0.5496 7.0000
8.5271 3.9339 -0.5934 30.0000
5.7300 2.0337 -0.4224 17.0000
6.6726 1.6988 -0.5165 17.0000
6.5930 1.0625 -0.5357 6.0000
8.4419 3.9426 -0.3692 13.0000
6.7017 1.7260 -0.3628 19.0000
6.5441 1.0873 -0.3779 2.0000
23.2621 10.7620 -0.4306 4.0000
6.2488 2.2253 -0.1493 9.0000
6.0871 1.5543 -0.1777 8.0000
6.1718 0.9916 -0.2130 4.0000
5.6008 0.9273 -1.0261 9.0000
5.5787 0.8899 -0.6316 17.0000
27.6710 4.3880 1.1310 14.0000
26.8777 12.2427 1.7177 17.0000
30.6849 4.8214 2.5325 11.0000
24.8897 11.2008 3.3551 10.0000
13.7450 2.2362 2.5318 57.0000
26.9199 12.3414 0.1812 17.0000
6.7486 1.7018 -0.0402 14.0000
6.9918 1.1089 -0.0753 7.0000
26.7710 12.4088 0.8576 55.0000
72.8337 25.8753 1.8219 3.0000
145.3806 37.1396 2.7599 3.0000
68.9727 11.0651 0.8347 7.0000
4.4198 2.0526 -1.2594 12.0000
4.6618 2.1194 -0.7044 11.0000
5.3427 2.4287 -0.5482 7.0000
5.7182 2.0071 -0.4210 17.0000
6.6882 1.6780 -0.5173 14.0000
6.5966 1.0395 -0.5357 5.0000
8.4964 3.9320 -0.3710 32.0000
5.9669 2.1224 -0.2931 2.0000
6.7270 1.7075 -0.3638 6.0000
6.5824 1.0700 -0.3799 5.0000
23.4267 10.7391 -0.4330 4.0000
6.2660 2.2068 -0.1495 9.0000
6.0876 1.5319 -0.1776 8.0000
6.2246 0.9778 -0.2147 5.0000
5.6526 0.9155 -1.0351 9.0000
5.5965 0.8727 -0.6333 14.0000
24.3437 3.7739 0.9943 16.0000
30.2549 13.6545 1.9308 18.0000
23.8941 3.6702 1.9702 35.0000
24.8199 11.0654 3.3404 16.0000
13.9373 2.2176 2.5659 70.0000
27.1244 11.9576 7.9599 8.0000
25.3469 11.5129 0.1703 4.0000
73.6950 25.6611 0.0000 4.0000
6.7593 1.6794 -0.0402 14.0000
7.0500 1.0929 -0.0759 8.0000
26.8641 12.3383 0.8592 32.0000
30.5978 10.7488 0.7639 32.0000
145.4124 36.6075 2.7580 4.0000
70.0235 10.9830 0.8470 5.0000
4.4401 2.0433 -1.2632 12.0000
4.6647 2.1011 -0.7037 11.0000
5.3376 2.4039 -0.5468 8.0000
10.2630 4.6493 -0.7125 45.0000
5.7299 1.9888 -0.4213 18.0000
8.6009 3.9441 -0.3750 16.0000
7.7880 2.7402 -0.3827 5.0000
6.5811 1.0463 -0.3796 5.0000
23.6370 10.7359 -0.4362 6.0000
6.2642 2.1816 -0.1493 4.0000
6.0881 1.5094 -0.1775 8.0000
6.2626 0.9613 -0.2159 3.0000
5.7092 0.9042 -1.0449 9.0000
5.6142 0.8554 -0.6349 11.0000
24.2876 3.6785 0.9915 14.0000
30.2978 13.5468 1.9305 30.0000
23.9068 3.5868 1.9702 48.0000
23.9641 10.5835 3.2201 16.0000
14.1491 2.2006 2.6035 42.0000
11.8390 5.1666 3.4626 75.0000
76.9753 26.5025 0.0000 3.0000
6.7700 1.6570 -0.0403 14.0000
7.0884 1.0735 -0.0763 8.0000
30.2230 13.7542 0.9652 20.0000
30.5879 10.6256 0.7627 16.0000
31.5045 7.8156 0.5964 28.0000
69.4733 10.6484 0.8399 6.0000
4.4516 2.0298 -1.2645 11.0000
4.6630 2.0807 -0.7023 10.0000
5.3323 2.3792 -0.5453 9.0000
10.3019 4.6237 -0.7141 49.0000
5.7038 1.9574 -0.4189 14.0000
7.6929 1.8728 -0.5944 12.0000
7.5156 1.1299 -0.6102 10.0000
14.9945 6.8175 -0.6539 8.0000
7.8022 2.7147 -0.3830 11.0000
7.7860 1.9183 -0.4207 4.0000
7.6306 1.1850 -0.4403 7.0000
23.8294 10.7231 -0.4390 7.0000
6.2812 2.1630 -0.1495 5.0000
6.0885 1.4870 -0.1773 14.0000
5.7658 0.8925 -1.0548 9.0000
5.6270 0.8372 -0.6361 28.0000
24.2459 3.5856 0.9892 11.0000
30.6278 13.5663 1.9485 8.0000
23.9464 10.4759 3.2128 41.0000
14.4194 2.1910 2.6520 71.0000
12.1095 5.2345 3.5366 42.0000
25.2942 11.2766 0.1694 2.0000
76.9679 26.1998 0.0000 3.0000
6.7855 1.6357 -0.0403 14.0000
7.1515 1.0574 -0.0769 9.0000
30.2252 13.6281 0.9638 36.0000
31.5850 7.7186 0.5975 32.0000
69.5991 10.4192 0.8409 9.0000
4.4719 2.0202 -1.2682 10.0000
4.6657 2.0624 -0.7016 10.0000
5.3360 2.3585 -0.5449 9.0000
10.2998 4.5796 -0.7128 46.0000
5.6964 1.9327 -0.4178 16.0000
7.4998 1.1007 -0.6085 9.0000
15.0865 6.7959 -0.6569 7.0000
7.8164 2.6891 -0.3832 7.0000
7.7927 1.8911 -0.4207 3.0000
24.0173 10.7070 -0.4418 8.0000
6.2651 2.1330 -0.1489 4.0000
6.0888 1.4645 -0.1772 17.0000
5.8175 0.8797 -1.0637 9.0000
5.6446 0.8197 -0.6377 11.0000
30.0734 4.3389 1.2267 18.0000
30.8213 13.5235 1.9578 14.0000
23.9828 10.3923 3.2128 31.0000
14.3442 2.1284 2.6367 39.0000
12.4961 5.3501 3.6444 8.0000
25.2648 11.1580 0.1690 4.0000
77.0778 25.9374 0.0000 6.0000
6.8009 1.6143 -0.0404 13.0000
7.2293 1.0431 -0.0777 10.0000
31.2767 10.6207 0.7780 4.0000
15.2953 3.6820 0.2887 34.0000
69.0809 10.0952 0.8342 9.0000
4.4657 1.9986 -1.2645 6.0000
4.6638 2.0422 -0.7003 10.0000
5.3351 2.3359 -0.5439 9.0000
7.7155 1.8213 -0.5951 15.0000
7.5332 1.0788 -0.6110 9.0000
15.1785 6.7737 -0.6599 6.0000
5.9486 2.0228 -0.2908 3.0000
7.8089 1.8662 -0.4212 3.0000
24.2009 10.6878 -0.4445 8.0000
6.2535 2.1047 -0.1485 6.0000
6.0890 1.4421 -0.1770 7.0000
6.4207 0.9168 -0.2211 12.0000
5.8789 0.8679 -1.0745 10.0000
5.6524 0.8007 -0.6383 6.0000
31.1818 4.3876 1.2714 17.0000
30.9369 13.4457 1.9622 12.0000
23.7505 3.3094 1.9544 16.0000
14.0886 2.0403 2.5883 22.0000
12.5058 5.3027 3.6418 26.0000
25.2166 11.0316 0.1684 6.0000
77.2343 25.6903 0.0000 8.0000
6.8162 1.5928 -0.0405 13.0000
7.3221 1.0304 -0.0787 7.0000
32.6229 14.4364 1.0371 16.0000
15.2838 3.6229 0.2882 43.0000
70.6452 10.0720 0.8527 6.0000
4.4461 1.9712 -1.2569 5.0000
4.6663 2.0239 -0.6996 11.0000
5.3387 2.3153 -0.5435 9.0000
6.0789 2.6497 -0.4183 5.0000
5.6766 1.8819 -0.4154 17.0000
7.7023 1.7899 -0.5936 13.0000
15.2706 6.7510 -0.6629 7.0000
5.9415 1.9972 -0.2901 19.0000
7.7765 1.8298 -0.4191 10.0000
24.4349 10.6894 -0.4481 9.0000
6.2419 2.0766 -0.1480 6.0000
6.0891 1.4197 -0.1769 5.0000
6.4734 0.9012 -0.2228 11.0000
5.9404 0.8558 -1.0852 9.0000
5.6551 0.7810 -0.6383 6.0000
23.9357 3.2841 0.9751 21.0000
30.9057 13.3041 1.9573 15.0000
23.6780 3.2151 1.9475 39.0000
23.8036 10.1178 3.1792 31.0000
13.5209 1.9102 2.4825 40.0000
12.5198 5.2571 3.6405 17.0000
25.2183 10.9276 0.1681 6.0000
77.2950 25.4111 0.0000 7.0000
6.8363 1.5724 -0.0405 14.0000
7.3950 1.0143 -0.0794 5.0000
33.0942 14.5071 1.0505 15.0000
31.8529 10.5690 0.7905 31.0000
15.2769 3.5649 0.2879 47.0000
28.0574 3.9034 0.3382 38.0000
4.4175 1.9401 -1.2468 4.0000
4.6688 2.0056 -0.6989 11.0000
5.3421 2.2946 -0.5430 9.0000
6.0561 2.6146 -0.4161 6.0000
7.7134 1.7641 -0.5940 13.0000
6.4441 0.8777 -0.5217 5.0000
15.3810 6.7358 -0.6667 7.0000
5.9200 1.9670 -0.2887 17.0000
7.7877 1.8038 -0.4194 15.0000
24.7519 10.7254 -0.4532 13.0000
6.2301 2.0485 -0.1476 7.0000
6.0891 1.3973 -0.1768 4.0000
6.4567 0.8759 -0.2221 32.0000
6.0067 0.8439 -1.0968 10.0000
5.6775 0.7638 -0.6405 4.0000
24.1946 3.2335 0.9852 13.0000
31.0255 13.2274 1.9619 15.0000
23.6792 3.1311 1.9466 14.0000
23.8845 10.0539 3.1853 10.0000
13.5470 1.8656 2.4861 5.0000
25.3665 10.8869 0.1689 7.0000
15.3459 4.9840 0.0000 22.0000
6.8564 1.5518 -0.0406 15.0000
25.1910 3.3530 -0.2715 9.0000
31.9324 10.4718 0.7916 5.0000
15.3184 3.5183 0.2884 43.0000
28.1600 3.8175 0.3393 18.0000
4.4509 1.9363 -1.2544 6.0000
4.6712 1.9874 -0.6982 11.0000
5.3410 2.2721 -0.5421 8.0000
6.0331 2.5797 -0.4139 7.0000
7.6903 1.7306 -0.5918 15.0000
6.4965 0.8617 -0.5257 5.0000
15.4869 6.7179 -0.6702 9.0000
5.9268 1.9463 -0.2887 15.0000
7.7258 1.7611 -0.4157 5.0000
6.5027 0.8947 -0.3739 5.0000
24.9362 10.7021 -0.4559 31.0000
6.2277 2.0237 -0.1474 7.0000
6.0891 1.3750 -0.1766 4.0000
6.6182 0.8742 -0.2276 3.0000
6.0729 0.8315 -1.1085 9.0000
24.1067 3.1362 0.9812 6.0000
31.1404 13.1482 1.9663 17.0000
24.0065 10.0068 3.1969 4.0000
15.4402 2.0708 2.8331 5.0000
17.4801 7.1991 5.0725 15.0000
25.5654 10.8667 0.1699 3.0000
15.3632 4.9304 0.0000 15.0000
6.8813 1.5322 -0.0407 13.0000
25.1877 3.2631 -0.2713 46.0000
33.6630 14.4772 1.0653 23.0000
31.4171 10.1815 0.7779 7.0000
31.4662 7.1100 0.5928 5.0000
4.4709 1.9265 -1.2582 12.0000
4.6736 1.9691 -0.6975 11.0000
5.3443 2.2515 -0.5416 9.0000
6.0007 2.5410 -0.4110 7.0000
7.7012 1.7048 -0.5921 13.0000
6.4699 0.8353 -0.5233 2.0000
15.6021 6.7033 -0.6742 13.0000
7.6686 1.7199 -0.4122 17.0000
6.5058 0.8720 -0.3739 3.0000
24.9780 10.6169 -0.4560 25.0000
6.2252 1.9989 -0.1471 7.0000
6.0890 1.3526 -0.1765 8.0000
6.6708 0.8574 -0.2293 3.0000
6.1392 0.8187 -1.1201 9.0000
6.1412 0.7822 -0.6926 4.0000
33.3412 13.9409 2.1023 9.0000
23.8142 2.9800 1.9560 20.0000
24.1330 9.9608 3.2091 14.0000
15.2279 1.9883 2.7928 16.0000
17.5588 7.1600 5.0881 15.0000
32.8375 13.8244 0.2180 107.0000
15.3755 4.8752 0.0000 6.0000
6.9061 1.5125 -0.0409 10.0000
26.7169 3.3661 -0.2877 25.0000
33.6443 14.3302 1.0631 14.0000
31.2621 10.0108 0.7732 10.0000
32.2668 7.1726 0.6074 8.0000
25.1660 3.2334 0.3029 47.0000
4.4910 1.9166 -1.2619 11.0000
4.6759 1.9509 -0.6968 11.0000
5.3475 2.2309 -0.5411 8.0000
5.8761 2.4640 -0.4018 6.0000
6.8436 2.1636 -0.4991 20.0000
7.7022 1.6769 -0.5918 13.0000
6.4431 0.8090 -0.5209 20.0000
15.7035 6.6820 -0.6776 13.0000
6.8248 2.1889 -0.3320 38.0000
7.6697 1.6921 -0.4120 16.0000
6.5533 0.8550 -0.3765 3.0000
24.9596 10.5064 -0.4550 31.0000
6.2226 1.9741 -0.1469 8.0000
6.0888 1.3303 -0.1763 27.0000
6.7630 0.8452 -0.2324 5.0000
6.2103 0.8061 -1.1327 10.0000
6.2178 0.7698 -0.7010 24.0000
23.7114 2.9167 0.9642 33.0000
27.8604 11.5341 1.7538 16.0000
23.7403 2.8866 1.9491 41.0000
18.0768 7.3859 2.3990 9.0000
14.8151 1.8819 2.7156 32.0000
12.0861 4.8774 3.4938 6.0000
32.6825 13.6250 0.2167 5.0000
15.4401 4.8365 0.0000 3.0000
6.9309 1.4926 -0.0410 10.0000
26.7433 3.2747 -0.2878 11.0000
31.5780 9.9906 0.7802 6.0000
31.4418 6.8741 0.5914 15.0000
25.2267 3.1517 0.3035 34.0000
4.5244 1.9122 -1.2695 16.0000
4.6781 1.9327 -0.6961 11.0000
5.3507 2.2103 -0.5407 9.0000
5.8432 2.4262 -0.3990 6.0000
7.7032 1.6489 -0.5914 13.0000
15.8280 6.6699 -0.6820 11.0000
6.8752 2.1786 -0.3341 26.0000
7.6560 1.6611 -0.4109 17.0000
6.5018 0.8253 -0.3733 13.0000
24.9408 10.3961 -0.4540 38.0000
6.2199 1.9494 -0.1467 7.0000
6.0934 1.3090 -0.1763 34.0000
6.8404 0.8306 -0.2349 7.0000
6.2765 0.7924 -1.1443 9.0000
6.3241 0.7605 -0.7127 8.0000
23.5280 2.8108 0.9563 16.0000
24.9171 10.2132 1.5660 19.0000
23.6711 2.7944 1.9426 13.0000
17.9967 7.2799 2.3850 9.0000
17.8505 7.1340 5.1582 6.0000
33.0765 13.6540 0.2190 10.0000
25.8599 8.0028 0.0000 46.0000
6.9557 1.4725 -0.0411 10.0000
32.9596 13.7674 1.0384 20.0000
25.8971 8.0935 0.6389 17.0000
32.2281 6.9282 0.6057 6.0000
4.5176 1.8908 -1.2657 13.0000
4.6848 1.9163 -0.6961 11.0000
5.3537 2.1897 -0.5402 9.0000
5.8794 2.4172 -0.4009 5.0000
6.8729 2.1202 -0.5002 26.0000
7.6796 1.6159 -0.5891 13.0000
15.9019 6.6358 -0.6842 12.0000
6.8494 2.1442 -0.3325 9.0000
7.6617 1.6343 -0.4109 16.0000
6.5988 0.8141 -0.3788 4.0000
24.9215 10.2861 -0.4530 43.0000
6.2171 1.9247 -0.1464 8.0000
6.0979 1.2878 -0.1763 38.0000
6.9226 0.8160 -0.2377 7.0000
6.3476 0.7788 -1.1568 9.0000
6.3908 0.7458 -0.7200 9.0000
23.4732 2.7212 0.9537 7.0000
28.1576 11.4276 1.7674 12.0000
25.2700 2.8934 2.0732 11.0000
14.2433 5.6337 4.1079 12.0000
32.3511 13.2224 0.2139 6.0000
25.9451 7.9300 0.0000 9.0000
6.9754 1.4513 -0.0412 11.0000
78.3317 9.0269 -0.8432 4.0000
33.4277 13.8262 1.0516 9.0000
25.8631 7.9839 0.6374 48.0000
26.5979 5.6211 0.4994 10.0000
29.6524 3.4937 0.3565 23.0000
4.4661 1.8509 -1.2493 9.0000
4.6869 1.8981 -0.6955 11.0000
5.3567 2.1692 -0.5397 8.0000
5.8739 2.3910 -0.3999 6.0000
6.7657 2.0612 -0.4918 12.0000
7.6559 1.5830 -0.5869 11.0000
16.0081 6.6146 -0.6877 10.0000
6.8378 2.1143 -0.3315 9.0000
7.6625 1.6065 -0.4107 14.0000
24.9017 10.1763 -0.4520 45.0000
6.2191 1.9015 -0.1463 9.0000
6.0975 1.2655 -0.1762 37.0000
7.0049 0.8009 -0.2404 7.0000
6.4187 0.7647 -1.1694 9.0000
6.4477 0.7296 -0.7261 8.0000
32.0070 3.5954 1.3005 15.0000
31.2540 12.5580 1.9593 12.0000
24.9616 9.8974 3.3007 22.0000
14.7509 1.7170 2.7004 37.0000
12.4602 4.8775 3.5872 13.0000
7.0197 1.4349 -0.0414 10.0000
25.9530 7.9125 0.6389 4.0000
26.5635 5.5170 0.4984 49.0000
29.8085 3.4066 0.3582 14.0000
4.4054 1.8076 -1.2304 4.0000
4.6889 1.8799 -0.6948 11.0000
5.3597 2.1486 -0.5393 9.0000
5.8915 2.3742 -0.4006 9.0000
6.7442 2.0290 -0.4897 12.0000
7.6614 1.5563 -0.5869 11.0000
7.3454 0.8175 -0.5933 15.0000
6.8594 2.0948 -0.3322 6.0000
7.6583 1.5778 -0.4101 12.0000
7.3283 0.8517 -0.4205 14.0000
24.8814 10.0668 -0.4510 47.0000
6.2113 1.8755 -0.1460 8.0000
6.0970 1.2432 -0.1760 38.0000
7.0970 0.7863 -0.2435 7.0000
6.4849 0.7496 -1.1810 13.0000
6.5046 0.7130 -0.7323 29.0000
31.6866 3.4475 1.2869 8.0000
31.1307 12.3824 1.9488 7.0000
24.9498 9.7920 3.2946 18.0000
14.8594 1.6771 2.7192 24.0000
12.1575 4.7100 3.4950 13.0000
32.1456 12.8772 0.2119 21.0000
15.9566 4.7547 0.0000 3.0000
7.0638 1.4183 -0.0416 11.0000
73.9291 7.9973 -0.7952 4.0000
31.9534 12.9556 1.0023 22.0000
31.4895 9.4809 0.7746 8.0000
26.6267 5.4332 0.4992 24.0000
29.9842 3.3207 0.3602 15.0000
4.4072 1.7904 -1.2292 6.0000
4.6908 1.8617 -0.6941 11.0000
5.3625 2.1280 -0.5388 9.0000
5.9090 2.3574 -0.4012 7.0000
6.7560 2.0068 -0.4900 12.0000
7.3829 0.7956 -0.5961 10.0000
10.7109 4.3364 -0.4583 62.0000
7.6344 1.5451 -0.4086 13.0000
7.3759 0.8311 -0.4231 10.0000
24.8654 9.9594 -0.4500 45.0000
6.2082 1.8509 -0.1458 7.0000
6.1013 1.2219 -0.1760 26.0000
7.1991 0.7721 -0.2469 9.0000
6.5559 0.7346 -1.1935 9.0000
6.5515 0.6950 -0.7373 4.0000
31.2414 3.2889 1.2684 10.0000
28.1875 11.0974 1.7619 24.0000
24.7896 9.6294 3.2690 13.0000
14.8603 1.6247 2.7183 28.0000
12.4759 4.7834 3.5820 18.0000
32.2786 12.8000 0.2125 33.0000
15.9395 4.6891 0.0000 13.0000
7.1227 1.4042 -0.0420 11.0000
31.7990 12.7639 0.9961 21.0000
68.4679 20.3568 1.6836 3.0000
30.5473 6.1220 0.5724 9.0000
30.0204 3.2186 0.3605 7.0000
4.4314 1.7823 -1.2342 9.0000
4.6973 1.8453 -0.6941 10.0000
5.3653 2.1075 -0.5383 8.0000
6.7534 1.9804 -0.4893 9.0000
7.3658 0.7678 -0.5945 8.0000
10.7213 4.2971 -0.4581 65.0000
7.6593 1.5223 -0.4096 13.0000
6.9420 0.7580 -0.3979 4.0000
24.8489 9.8523 -0.4491 47.0000
6.1955 1.8236 -0.1453 6.0000
6.1055 1.2006 -0.1760 18.0000
7.2912 0.7561 -0.2500 9.0000
6.6318 0.7196 -1.2070 9.0000
6.6280 0.6797 -0.7457 5.0000
32.1558 12.5311 2.0075 12.0000
9.9363 1.0006 0.8120 60.0000
24.2532 2.5628 4.4394 16.0000
32.2114 12.6434 0.2117 21.0000
15.9462 4.6306 0.0000 2.0000
7.1767 1.3888 -0.0423 12.0000
10.0673 1.0225 -0.1078 54.0000
31.8016 12.6362 0.9948 25.0000
31.5213 9.2510 0.7738 30.0000
30.5881 6.0192 0.5728 8.0000
4.4556 1.7740 -1.2393 11.0000
4.6991 1.8271 -0.6934 11.0000
5.3680 2.0869 -0.5379 8.0000
5.9671 2.3324 -0.4040 4.0000
6.7411 1.9513 -0.4879 3.0000
6.9618 0.7014 -0.5615 3.0000
10.7734 4.2744 -0.4597 54.0000
6.9794 0.7374 -0.3999 5.0000
24.8273 9.7436 -0.4481 47.0000
6.1874 1.7977 -0.1450 8.0000
6.1146 1.1802 -0.1762 16.0000
7.2590 0.7272 -0.2488 17.0000
6.7076 0.7041 -1.2204 9.0000
6.7045 0.6638 -0.7541 7.0000
10.0328 0.9890 0.4060 99.0000
32.2878 12.4529 2.0131 10.0000
9.9397 0.9659 0.8120 68.0000
23.6875 9.0112 3.1150 15.0000
12.4502 4.6741 3.5652 5.0000
26.2716 10.2051 0.1724 32.0000
70.1870 20.1237 0.0000 5.0000
7.2404 1.3750 -0.0426 12.0000
10.0708 0.9873 -0.1078 65.0000
31.8780 12.5379 0.9958 14.0000
31.5438 9.1381 0.7736 6.0000
30.5402 5.8992 0.5715 13.0000
4.4347 1.7477 -1.2317 8.0000
4.7054 1.8107 -0.6934 10.0000
5.3706 2.0664 -0.5374 9.0000
6.7335 1.9236 -0.4869 10.0000
5.6833 1.0725 -0.4334 7.0000
6.9989 0.6804 -0.5643 6.0000
6.6350 1.2709 -0.3541 10.0000
7.0564 0.7206 -0.4042 5.0000
24.8145 9.6387 -0.4473 48.0000
6.1744 1.7706 -0.1445 3.0000
6.1285 1.1607 -0.1765 15.0000
7.4108 0.7162 -0.2540 3.0000
6.7835 0.6881 -1.2338 8.0000
6.7761 0.6470 -0.7619 8.0000
10.0312 0.9535 0.4058 100.0000
26.3483 10.0555 1.6401 40.0000
9.9381 0.9307 0.8116 73.0000
23.9556 9.0177 3.1462 13.0000
12.0139 4.4623 3.4353 12.0000
26.3024 10.1115 0.1724 21.0000
69.5255 19.6716 0.0000 13.0000
7.2796 1.3561 -0.0428 9.0000
10.0791 0.9526 -0.1079 59.0000
31.9449 12.4356 0.9965 15.0000
31.8735 9.1132 0.7809 5.0000
31.3857 5.9489 0.5870 10.0000
10.0518 0.9747 0.1203 69.0000
4.4138 1.7217 -1.2241 27.0000
4.7071 1.7925 -0.6927 10.0000
5.3777 2.0476 -0.5374 9.0000
6.7162 1.8934 -0.4852 10.0000
5.6625 1.0481 -0.4315 23.0000
7.0111 0.6569 -0.5651 17.0000
10.8542 4.2191 -0.4619 24.0000
6.6933 1.9170 -0.3225 17.0000
6.6001 1.2403 -0.3520 15.0000
7.1781 0.7076 -0.4111 6.0000
24.7827 9.5269 -0.4461 58.0000
6.1661 1.7450 -0.1442 3.0000
6.1374 1.1402 -0.1766 15.0000
7.4431 0.6931 -0.2550 26.0000
6.8691 0.6725 -1.2491 8.0000
6.8525 0.6301 -0.7703 8.0000
10.0395 0.9189 0.4060 100.0000
26.4253 9.9793 1.6427 45.0000
24.3357 9.0640 3.1920 17.0000
24.8536 9.1387 7.1095 14.0000
26.3422 10.0214 0.1724 42.0000
70.4751 19.6749 0.0000 11.0000
10.0824 0.9175 -0.1079 59.0000
26.3314 10.1436 0.8201 39.0000
69.7220 19.6745 1.7076 6.0000
31.5734 5.8703 0.5901 15.0000
10.0551 0.9396 0.1203 73.0000
4.3882 1.6940 -1.2153 9.0000
4.7133 1.7760 -0.6927 10.0000
5.4128 2.0394 -0.5402 9.0000
6.7180 1.8686 -0.4848 11.0000
5.6808 1.0310 -0.4326 24.0000
7.1325 0.6431 -0.5748 7.0000
6.0344 2.3186 -0.2557 3.0000
6.6999 1.8936 -0.3225 21.0000
7.2749 0.6915 -0.4165 14.0000
24.7691 9.4226 -0.4453 43.0000
6.1577 1.7194 -0.1438 4.0000
6.1512 1.1206 -0.1769 13.0000
7.5301 0.6746 -0.2579 8.0000
6.9644 0.6572 -1.2661 12.0000
6.9338 0.6131 -0.7793 8.0000
28.8860 2.4919 2.3636 9.0000
23.9016 8.8073 3.1309 14.0000
9.6989 0.8912 1.7686 73.0000
12.1536 4.4180 3.4665 23.0000
10.8054 4.0640 0.0705 29.0000
79.0081 21.7603 0.0000 4.0000
26.3526 10.0462 0.8196 45.0000
70.8978 19.7394 1.7347 4.0000
30.5019 5.5611 0.5697 14.0000
4.3625 1.6666 -1.2065 5.0000
4.7148 1.7578 -0.6920 10.0000
5.4385 2.0275 -0.5421 4.0000
7.2291 0.6263 -0.5824 9.0000
6.1031 2.3206 -0.2583 5.0000
6.6728 1.8608 -0.3208 17.0000
7.3071 0.6688 -0.4182 9.0000
10.7105 4.0282 -0.1919 59.0000
6.1396 1.6912 -0.1433 4.0000
6.1600 1.1000 -0.1770 12.0000
7.6817 0.6611 -0.2630 3.0000
7.0549 0.6409 -1.2822 11.0000
7.0152 0.5956 -0.7882 9.0000
28.8598 2.3881 2.3608 13.0000
9.6970 0.8569 1.7677 74.0000
12.3325 4.4344 3.5132 7.0000
10.8007 4.0193 0.0704 31.0000
79.1559 21.5041 0.0000 6.0000
26.4343 9.9718 0.8211 27.0000
70.6723 19.4110 1.7275 7.0000
27.3617 4.8901 0.5106 7.0000
4.3592 1.6479 -1.2040 4.0000
4.7209 1.7413 -0.6920 11.0000
5.4689 2.0171 -0.5444 7.0000
6.7116 1.8164 -0.4834 12.0000
5.7468 1.0016 -0.4371 10.0000
7.3057 0.6072 -0.5884 9.0000
6.6504 1.8295 -0.3194 16.0000
5.8900 1.0433 -0.3133 17.0000
7.3741 0.6489 -0.4220 6.0000
10.7338 3.9943 -0.1920 45.0000
6.1310 1.6659 -0.1429 23.0000
6.1736 1.0802 -0.1773 11.0000
7.7985 0.6436 -0.2670 4.0000
7.1551 0.6247 -1.3001 10.0000
7.1014 0.5779 -0.7977 8.0000
23.3646 1.8851 0.9460 22.0000
31.6049 11.5598 1.9575 13.0000
30.3931 2.4080 2.4857 21.0000
24.1959 8.7244 3.1614 40.0000
17.8064 6.3350 5.0712 12.0000
10.8522 3.9954 0.0706 45.0000
79.3561 21.2613 0.0000 7.0000
28.3522 2.2714 -0.3039 15.0000
33.6324 12.5550 1.0436 29.0000
70.7106 19.1564 1.7268 4.0000
27.4081 4.7997 0.5112 15.0000
4.3694 1.6344 -1.2052 7.0000
4.7270 1.7249 -0.6920 10.0000
5.4479 1.9877 -0.5416 16.0000
5.7711 2.1174 -0.3876 17.0000
6.7083 1.7904 -0.4827 13.0000
7.3972 0.5887 -0.5957 7.0000
6.1098 2.2745 -0.2579 5.0000
6.0543 1.6426 -0.2904 21.0000
5.8887 1.0219 -0.3130 30.0000
7.4260 0.6273 -0.4248 40.0000
10.7196 3.9464 -0.1915 15.0000
6.0933 1.6328 -0.1419 38.0000
6.1823 1.0595 -0.1775 11.0000
7.2602 0.6083 -1.3189 13.0000
7.1876 0.5596 -0.8073 8.0000
30.2102 2.3298 1.2233 21.0000
25.5623 9.2475 1.5808 4.0000
30.9678 2.3446 2.5321 15.0000
24.1654 8.6182 3.1535 17.0000
12.4269 4.3707 3.5314 42.0000
10.9742 3.9969 0.0713 40.0000
79.6135 21.0327 0.0000 9.0000
30.5359 5.1335 -0.1797 38.0000
28.2851 2.1667 -0.3031 50.0000
33.2822 12.2920 1.0314 25.0000
79.9236 21.3534 1.9501 4.0000
27.4937 4.7159 0.5125 15.0000
4.3751 1.6191 -1.2052 8.0000
4.7330 1.7083 -0.6920 11.0000
5.4548 1.9687 -0.5416 12.0000
5.7879 2.1006 -0.3882 15.0000
6.6952 1.7619 -0.4813 10.0000
7.4788 0.5689 -0.6021 8.0000
6.1130 2.2514 -0.2577 5.0000
6.0793 1.6267 -0.2913 9.0000
5.9021 1.0030 -0.3135 28.0000
7.5028 0.6074 -0.4291 94.0000
10.7192 3.9039 -0.1913 50.0000
6.1280 1.6192 -0.1426 16.0000
6.1958 1.0395 -0.1777 10.0000
23.7190 1.7803 -0.8143 23.0000
7.3505 0.5900 -1.3350 11.0000
7.2737 0.5407 -0.8168 10.0000
24.7424 1.8222 1.0014 17.0000
24.3726 8.7207 1.5052 7.0000
28.4856 2.0572 2.3282 8.0000
24.6165 8.6825 3.2085 18.0000
24.3497 1.8872 4.4457 14.0000
12.4604 4.3336 3.5366 17.0000
10.9410 3.9416 0.0710 15.0000
79.9090 20.8126 0.0000 7.0000
30.5783 5.0309 -0.1799 40.0000
28.3623 2.0731 -0.3038 10.0000
33.2357 12.1431 1.0286 25.0000
71.9592 18.9564 1.7540 7.0000
28.3468 2.1415 0.3394 42.0000
4.3808 1.6038 -1.2052 10.0000
4.7389 1.6918 -0.6920 10.0000
5.4523 1.9463 -0.5407 10.0000
5.7388 2.0601 -0.3844 14.0000
6.7206 1.7435 -0.4827 9.0000
7.5652 0.5489 -0.6089 10.0000
6.1584 2.2438 -0.2593 8.0000
5.9351 0.9873 -0.3151 20.0000
7.5845 0.5873 -0.4337 4.0000
11.1983 4.0344 -0.1996 43.0000
6.1384 1.5990 -0.1427 17.0000
6.2093 1.0195 -0.1780 11.0000
23.7749 1.7011 -0.8160 17.0000
7.4997 0.5755 -1.3619 47.0000
7.3697 0.5219 -0.8274 11.0000
24.7486 1.7358 1.0014 23.0000
70.1707 24.8429 4.3328 4.0000
28.3782 1.9499 2.3189 45.0000
24.5436 8.5605 3.1950 18.0000
24.6750 1.8257 4.5040 12.0000
13.4707 4.6328 3.8196 22.0000
10.8699 3.8731 0.0704 29.0000
80.0054 20.5398 0.0000 9.0000
30.7043 4.9416 -0.1805 3.0000
68.4657 4.7568 -0.7339 8.0000
72.0105 18.7014 1.7537 15.0000
30.6338 5.0344 0.5704 25.0000
28.3591 2.0428 0.3395 34.0000
4.3863 1.5885 -1.2052 12.0000
4.7495 1.6769 -0.6927 10.0000
5.4543 1.9256 -0.5402 6.0000
5.7319 2.0351 -0.3835 12.0000
6.7170 1.7176 -0.4820 9.0000
7.5475 1.2066 -0.5737 5.0000
7.6516 0.5282 -0.6158 9.0000
6.1239 2.2070 -0.2575 5.0000
6.0421 1.5716 -0.2890 2.0000
5.9779 0.9730 -0.3172 4.0000
7.7508 0.5729 -0.4431 3.0000
10.9204 3.8911 -0.1944 60.0000
6.1488 1.5789 -0.1428 19.0000
6.2276 1.0002 -0.1785 10.0000
23.7807 1.6181 -0.8160 21.0000
7.5213 0.5508 -1.3655 52.0000
7.4459 0.5011 -0.8358 10.0000
24.7196 1.6471 0.9999 36.0000
26.0063 9.1014 1.6023 33.0000
28.2804 1.8440 2.3103 14.0000
24.1324 8.3226 3.1376 8.0000
24.6223 1.7355 4.4932 10.0000
13.5645 4.6122 3.8417 12.0000
10.9258 3.8501 0.0707 25.0000
80.0039 20.2420 0.0000 9.0000
69.9236 11.0014 -0.4112 4.0000
68.1077 4.4931 -0.7299 6.0000
30.7926 11.0070 0.9505 4.0000
31.4908 8.0598 0.7657 16.0000
30.6364 4.9251 0.5701 14.0000
30.7404 2.1061 0.3679 7.0000
4.3918 1.5732 -1.2052 9.0000
4.7553 1.6603 -0.6927 11.0000
5.4516 1.9032 -0.5393 7.0000
5.7342 2.0134 -0.3831 13.0000
6.7278 1.6953 -0.4824 7.0000
7.5763 1.1841 -0.5756 11.0000
7.7479 0.5077 -0.6234 8.0000
6.1362 2.1873 -0.2577 5.0000
5.9895 1.5356 -0.2862 3.0000
6.5484 1.0422 -0.3475 4.0000
7.8922 0.5555 -0.4511 3.0000
24.6949 8.7098 -0.4400 30.0000
6.1495 1.5562 -0.1427 24.0000
6.2607 0.9831 -0.1793 10.0000
23.8061 1.5363 -0.8167 26.0000
7.5330 0.5252 -1.3673 88.0000
7.5170 0.4795 -0.8436 10.0000
24.7900 1.5649 1.0026 17.0000
25.9389 8.9763 1.5962 17.0000
28.3812 1.7511 2.3181 19.0000
28.8627 9.8424 3.7491 12.0000
24.7558 1.6580 4.5165 16.0000
13.7773 4.6310 3.8975 37.0000
73.6152 25.6871 0.4774 5.0000
80.2584 20.0085 0.0000 8.0000
68.8398 10.5848 -0.4046 5.0000
68.0830 4.2528 -0.7294 7.0000
30.7790 10.8811 0.9489 10.0000
31.2037 7.8703 0.7580 36.0000
29.1859 1.8975 0.3492 7.0000
4.3973 1.5579 -1.2052 10.0000
4.7610 1.6437 -0.6927 11.0000
5.4488 1.8809 -0.5383 7.0000
5.7648 2.0015 -0.3847 15.0000
7.7017 1.9125 -0.5521 7.0000
7.5952 1.1599 -0.5767 8.0000
7.8392 0.4861 -0.6307 8.0000
6.0288 1.5232 -0.2878 5.0000
6.6013 1.0270 -0.3501 3.0000
20.2617 1.3473 -1.1615 30.0000
24.7016 8.6153 -0.4395 7.0000
6.1500 1.5335 -0.1426 25.0000
6.3036 0.9673 -0.1805 10.0000
7.6967 0.5095 -1.3968 43.0000
7.6178 0.4592 -0.8548 6.0000
24.7405 1.4751 1.0003 9.0000
25.5073 8.7272 1.5677 45.0000
28.5314 1.6604 2.3299 9.0000
24.3122 8.1952 3.1535 10.0000
24.7909 1.5735 4.5219 13.0000
13.5918 4.5159 3.8404 57.0000
80.3278 19.7283 0.0000 7.0000
68.9801 10.3600 -0.4052 6.0000
28.0891 1.6592 -0.3006 9.0000
30.7885 10.7637 0.9481 8.0000
31.2553 7.7674 0.7586 18.0000
30.9040 1.9006 0.3697 6.0000
4.4027 1.5425 -1.2052 9.0000
4.7714 1.6287 -0.6934 10.0000
5.4459 1.8587 -0.5374 5.0000
7.5794 1.1304 -0.5752 9.0000
7.9602 0.4656 -0.6403 5.0000
7.7973 2.7198 -0.3271 3.0000
6.0098 1.4961 -0.2866 7.0000
20.4157 1.2859 -1.1701 14.0000
6.1505 1.5108 -0.1425 14.0000
6.3514 0.9520 -0.1817 10.0000
23.8562 1.3724 -0.8181 35.0000
7.7426 0.4854 -1.4049 9.0000
31.2300 1.7513 1.2629 25.0000
25.5849 8.6541 1.5706 11.0000
28.3380 1.5499 2.3136 14.0000
24.1523 8.0475 3.1291 12.0000
24.7324 1.4831 4.5102 13.0000
13.3873 4.3960 3.7781 48.0000
69.3226 10.1641 -0.4070 7.0000
28.0847 1.5606 -0.3005 16.0000
30.8448 10.6627 0.9486 7.0000
69.3818 10.4078 1.2900 6.0000
28.7043 1.6652 0.3433 13.0000
4.4126 1.5287 -1.2065 10.0000
4.7771 1.6120 -0.6934 10.0000
5.4382 1.8349 -0.5360 3.0000
5.7314 1.9452 -0.3816 16.0000
7.7101 1.8575 -0.5518 14.0000
13.9584 0.7637 -1.1250 34.0000
7.8256 2.6991 -0.3279 3.0000
6.0247 1.4775 -0.2871 14.0000
6.2181 0.9231 -0.3293 2.0000
20.5446 1.2220 -1.1772 12.0000
6.1557 1.4893 -0.1425 11.0000
6.4041 0.9370 -0.1832 6.0000
23.8608 1.2891 -0.8181 32.0000
31.2609 1.6436 1.2639 18.0000
30.8692 10.3228 1.8933 12.0000
27.9650 1.4317 2.2827 17.0000
24.3358 8.0144 3.1492 9.0000
24.7325 1.3965 4.5093 21.0000
13.4852 4.3761 3.8015 56.0000
80.5981 27.1809 0.5208 5.0000
15.2438 3.6295 0.0000 45.0000
70.7039 10.1146 -0.4149 5.0000
67.3299 3.4985 -0.7209 6.0000
30.8156 10.5323 0.9466 9.0000
15.2537 3.6767 0.3691 39.0000
69.5710 10.1880 1.2929 7.0000
30.8317 1.6802 0.3687 12.0000
4.4180 1.5133 -1.2065 7.0000
4.7827 1.5953 -0.6934 10.0000
5.4352 1.8127 -0.5350 2.0000
7.7262 1.8329 -0.5525 14.0000
7.5427 1.0712 -0.5718 6.0000
14.0606 0.7200 -1.1330 13.0000
7.8019 2.6604 -0.3265 5.0000
7.7920 1.8828 -0.3716 5.0000
20.6584 1.1564 -1.1835 11.0000
6.3491 2.1356 -0.1120 3.0000
6.1560 1.4667 -0.1424 12.0000
6.4668 0.9231 -0.1849 4.0000
23.8751 1.2063 -0.8184 22.0000
9.4733 0.4702 -1.0635 58.0000
31.6457 1.5530 1.2793 11.0000
28.7314 1.3703 2.3449 16.0000
23.1698 7.5406 2.9947 10.0000
13.4406 4.3098 3.7846 11.0000
80.5692 26.8583 0.5200 5.0000
15.2904 3.5842 0.0000 41.0000
28.0428 3.9128 -0.1643 37.0000
30.1224 1.4626 -0.3222 21.0000
30.8048 10.4087 0.9452 10.0000
15.2762 3.6258 0.3693 40.0000
69.0717 9.8687 1.2829 7.0000
29.3844 1.4987 0.3513 14.0000
4.4278 1.4994 -1.2077 14.0000
4.7882 1.5786 -0.6934 11.0000
5.4320 1.7906 -0.5341 20.0000
7.7277 1.8048 -0.5521 11.0000
14.1128 0.6733 -1.1371 12.0000
7.8083 1.8579 -0.3720 5.0000
6.4469 0.9110 -0.3412 25.0000
20.7820 1.0905 -1.1904 11.0000
6.3470 2.1103 -0.1119 5.0000
6.1562 1.4440 -0.1423 13.0000
6.5194 0.9074 -0.1863 3.0000
23.8892 1.1234 -0.8187 24.0000
8.6611 0.4513 -1.5714 42.0000
9.4798 0.4374 -1.0640 59.0000
29.1206 1.3276 1.1769 4.0000
25.3704 8.2865 1.5520 8.0000
29.7317 1.3138 2.4263 10.0000
23.1771 7.4535 2.9922 17.0000
24.0539 1.1899 4.3838 42.0000
27.3229 8.6618 7.6964 23.0000
80.5532 26.5409 0.5193 6.0000
15.3321 3.5376 0.0000 41.0000
28.1405 3.8264 -0.1648 37.0000
30.6561 10.2393 0.9395 35.0000
15.2839 3.5713 0.3692 48.0000
70.5664 9.8310 1.3101 11.0000
27.9811 1.3295 0.3344 14.0000
4.4376 1.4855 -1.2090 15.0000
4.7984 1.5635 -0.6941 10.0000
5.4335 1.7701 -0.5336 24.0000
6.8038 2.2310 -0.4519 33.0000
7.7145 1.7733 -0.5507 8.0000
6.4531 0.8707 -0.4883 7.0000
14.1748 0.6266 -1.1419 12.0000
7.8730 1.8443 -0.3748 6.0000
6.5292 0.8994 -0.3454 29.0000
20.9003 1.0236 -1.1969 10.0000
6.3353 2.0818 -0.1115 10.0000
6.1612 1.4225 -0.1423 13.0000
6.5771 0.8920 -0.1879 6.0000
23.9229 1.0413 -0.8198 16.0000
8.6871 0.4223 -1.5759 44.0000
9.5061 0.4053 -1.0668 53.0000
25.9604 1.0933 1.0488 18.0000
25.4182 8.2040 1.5532 8.0000
31.5685 1.2842 2.5760 5.0000
14.4776 4.5980 1.8651 47.0000
24.0628 1.1062 4.3847 41.0000
27.4220 8.5881 7.7159 12.0000
67.9804 22.1347 0.4377 14.0000
15.3882 3.4940 0.0000 9.0000
26.6401 1.1078 -0.2849 14.0000
31.2896 10.3297 0.9578 13.0000
15.3157 3.5224 0.3697 42.0000
28.0428 3.8079 0.5199 44.0000
27.9306 1.2294 0.3338 21.0000
4.4427 1.4700 -1.2090 27.0000
4.8039 1.5467 -0.6941 9.0000
5.4396 1.7511 -0.5336 21.0000
6.8400 2.2165 -0.4538 2.0000
7.7206 1.7464 -0.5507 9.0000
6.5104 0.8553 -0.4924 5.0000
14.2366 0.5796 -1.1467 15.0000
7.9524 1.8337 -0.3783 7.0000
6.5174 0.8746 -0.3446 25.0000
21.0284 0.9563 -1.2041 10.0000
6.3045 2.0473 -0.1109 15.0000
6.1613 1.3999 -0.1421 13.0000
6.6198 0.8743 -0.1890 3.0000
8.6935 0.3922 -1.5768 30.0000
9.4876 0.3714 -1.0646 62.0000
25.7544 0.9946 1.0403 18.0000
25.4277 8.1092 1.5520 11.0000
26.7273 0.9947 2.1802 11.0000
14.4652 4.5386 1.8614 40.0000
14.0385 4.3402 3.9404 17.0000
80.8222 26.0054 0.5199 4.0000
25.1813 3.2453 -0.1473 47.0000
26.5838 1.0125 -0.2842 57.0000
31.3587 10.2313 0.9588 14.0000
31.4793 7.1266 0.7602 8.0000
28.1749 3.7257 0.5221 9.0000
27.7499 1.1245 0.3316 14.0000
4.4432 1.4530 -1.2077 44.0000
4.8092 1.5299 -0.6941 10.0000
5.4457 1.7321 -0.5336 17.0000
6.8240 2.1850 -0.4522 6.0000
7.7170 1.7172 -0.5500 11.0000
6.4293 0.8219 -0.4860 3.0000
14.2734 0.5311 -1.1495 14.0000
7.9149 1.7960 -0.3762 9.0000
6.4858 0.8474 -0.3427 20.0000
21.1514 0.8878 -1.2110 9.0000
6.2926 2.0192 -0.1105 17.0000
6.1661 1.3784 -0.1421 14.0000
6.7071 0.8620 -0.1914 3.0000
23.9346 0.8745 -0.8199 17.0000
8.6997 0.3620 -1.5777 38.0000
9.5038 0.3388 -1.0663 59.0000
26.6514 0.9359 1.0765 12.0000
25.3606 7.9903 1.5462 12.0000
28.6880 0.9670 2.3400 2.0000
14.4809 4.4880 1.8614 43.0000
13.9889 4.2714 3.9222 16.0000
81.0793 25.7762 0.5210 5.0000
25.2420 3.1636 -0.1476 20.0000
26.6222 0.9209 -0.2846 45.0000
31.1032 4.0024 0.5762 13.0000
26.6845 0.9882 0.3188 41.0000
4.4437 1.4360 -1.2065 19.0000
4.8193 1.5146 -0.6948 11.0000
5.4517 1.7131 -0.5336 12.0000
6.8078 2.1536 -0.4506 4.0000
7.7132 1.6882 -0.5493 10.0000
6.5064 0.8086 -0.4917 29.0000
14.3150 0.4826 -1.1527 13.0000
7.7993 1.7411 -0.3704 18.0000
6.5333 0.8304 -0.3451 25.0000
21.2790 0.8188 -1.2181 11.0000
6.2853 1.9927 -0.1103 17.0000
6.1709 1.3569 -0.1421 12.0000
6.7795 0.8472 -0.1934 6.0000
23.9625 0.7918 -0.8208 27.0000
8.7304 0.3328 -1.5830 46.0000
9.4800 0.3048 -1.0635 62.0000
26.6296 0.8421 1.0755 70.0000
24.2480 0.7334 1.9772 30.0000
31.0974 9.7632 0.1994 28.0000
81.5755 17.6351 0.0000 3.0000
26.7452 0.8317 -0.2859 4.0000
31.3675 9.9924 0.9569 10.0000
29.6192 6.4883 0.7142 6.0000
25.1892 3.1523 0.4663 46.0000
26.6478 0.8937 0.3183 63.0000
0.5222 0.1631 -0.2367 4.0000
4.4395 1.4175 -1.2040 10.0000
4.8245 1.4978 -0.6948 11.0000
5.4529 1.6926 -0.5332 12.0000
6.8771 2.1493 -0.4547 6.0000
7.7093 1.6591 -0.5486 12.0000
6.4646 0.7806 -0.4883 37.0000
14.3565 0.4339 -1.1560 14.0000
7.7029 1.6913 -0.3655 11.0000
6.5411 0.8082 -0.3454 36.0000
21.4065 0.7488 -1.2253 10.0000
6.2779 1.9662 -0.1100 14.0000
6.1805 1.3364 -0.1423 10.0000
6.8568 0.8326 -0.1955 6.0000
24.0151 0.7096 -0.8225 33.0000
8.7414 0.3026 -1.5848 59.0000
9.4811 0.2717 -1.0635 62.0000
26.6673 0.7501 1.0769 49.0000
25.8547 7.9481 1.5730 42.0000
24.1956 0.6473 1.9727 17.0000
14.4787 4.3768 1.8572 23.0000
24.1742 0.7732 4.4026 37.0000
13.2086 3.9322 3.6950 10.0000
25.8498 8.0157 0.1656 43.0000
26.4935 5.6293 0.0000 46.0000
30.3033 3.5829 -0.1771 19.0000
31.3354 9.8618 0.9549 15.0000
32.2461 6.9460 0.7770 3.0000
25.2496 3.0704 0.4672 16.0000
26.7257 0.8029 0.3192 20.0000
4.4259 1.3961 -1.1989 4.0000
4.8344 1.4824 -0.6955 11.0000
5.4588 1.6735 -0.5332 12.0000
6.8083 2.1016 -0.4496 32.0000
7.6955 1.6281 -0.5472 12.0000
14.3978 0.3848 -1.1592 14.0000
6.8686 2.1556 -0.2849 6.0000
7.7039 1.6634 -0.3653 8.0000
21.5287 0.6778 -1.2321 10.0000
6.2752 1.9413 -0.1099 13.0000
6.1851 1.3148 -0.1423 10.0000
6.9292 0.8168 -0.1975 6.0000
23.9624 0.6243 -0.8206 42.0000
8.7424 0.2721 -1.5848 31.0000
9.4968 0.2390 -1.0651 50.0000
25.7629 7.8216 1.5657 30.0000
24.1977 0.5628 1.9727 15.0000
14.4225 4.3049 1.8480 27.0000
24.2014 0.6895 4.4071 31.0000
13.2686 3.8997 3.7080 12.0000
25.9159 7.9371 0.1658 32.0000
26.5276 5.5398 0.0000 42.0000
30.4597 3.4936 -0.1780 18.0000
30.1142 0.7254 -0.3219 6.0000
25.8672 8.0407 0.7872 34.0000
26.5879 5.6298 0.6400 17.0000
28.7575 0.7631 0.3435 10.0000
4.4585 1.3893 -1.2065 2.0000
